# .PCD v0.7 - Point Cloud Data file format
VERSION 0.7
FIELDS x y z intensity
SIZE 4 4 4 4
TYPE F F F F
COUNT 1 1 1 1
WIDTH 867
HEIGHT 1
VIEWPOINT 0 0 0 1 0 0 0
POINTS 867
DATA ascii
-1.9593086e+15 2.2800527e-41 -5792 -1.0446747e-38
-1.6063217e+31 2.2794922e-41 -1.7529424e+26 190.75493
-8.1530756e-35 2.2790718e-41 2.9242127e-25 1.6332098e+08
2.0090722e-29 2.2796323e-41 -1.4505439e-20 -2.4938331e+11
1.5616589e+13 2.2786514e-41 -1.0596767e+30 2.5954059e+38
-2.1048074e-06 2.2811738e-41 -5.4836273e-06 -1.4238774
-1.0246633e-33 2.2786514e-41 -1.0480505e-13 -7.9192435e-16
4.0824798e+35 2.2813139e-41 9.8114575e-30 -2.952015e-19
2.9836614e+27 2.2779508e-41 6.5530893e+14 5.6736996e+15
8.2219254e-09 2.278231e-41 2.6932246e+21 -2.2473298e+37
-7.71342e-32 2.278231e-41 540672 118.87833
1.2762153e-08 2.281454e-41 8.3379283e+21 0.50490707
4.8792647e+27 2.2780909e-41 -1.8984375 2.5022336e-29
-2.7769819e+31 2.2813139e-41 -6.068497e+34 -3.1959251e-26
-5.6252002e-39 2.279212e-41 -3.532511e+16 -2.2188669e+09
-8.0045632e-19 2.2804731e-41 -1028096 -1.1531188e-21
2.3394024e-23 2.2785113e-41 2.0702855e+25 -5.7244532e+13
4.8802231e+11 2.2785113e-41 -2.1971985e-25 -4.709106e-08
2.7352316e+26 2.2793521e-41 -5.8859587e-07 -8.9514289e-15
-1.6024135e+31 2.2794922e-41 3.821045e-30 3.5848592e-34
-2.2468585e+22 2.280333e-41 2.5874638e-28 -7.7655416e+13
2.3394027e-23 2.2785113e-41 -3.3341348e-07 -1.3522908e-13
-7.8508583e+37 2.2786514e-41 -1.2563684e-34 0.0001556917
-7.5398114e-38 2.2796323e-41 -1.7563274e+28 1.1338965e+14
0.0010624172 2.2796323e-41 -1.6320278e-14 -1.0618627e+21
3.0197988e-27 2.2806133e-41 -3.2883343e+09 -2.3008004e+14
-7.120536e+22 2.2813139e-41 -1.4779289e-11 -1.405608e+34
-4.291989e+18 2.2796323e-41 4.6253204e-05 3.4415766e+20
-8.3703782e-12 2.2797725e-41 -3.5651584e+08 2.7222134e+09
-7.0278581e-14 2.2813139e-41 1.3903673e-29 4.6684531e-12
-6.029456e-24 2.281454e-41 -2.703125 3.1882893e-18
-3.8581092e-24 2.2780909e-41 -1.476395e+09 1.750048e-23
-2.1017034e-32 2.278231e-41 5.5625 2.8598903e+34
-1.0147891e-05 2.2786514e-41 -1.9539925e-13 9.138711e-32
0.0010624191 2.2796323e-41 1.6948184e-32 5.7554178e-34
5.2680821e-14 2.2813139e-41 1.8859718e-22 1.4683695e-30
243.25339 2.281454e-41 -4.4330955e-07 8.6546516e-12
-438.50684 2.278231e-41 -5.0406319e-25 -270.50876
-8.8335742e-05 2.2790718e-41 -1.1329913e-17 -8.0228541e-28
48192.891 2.279212e-41 -0.0001373291 2.3276154e-05
-4.55817e-20 2.2799126e-41 -5.608308e-31 -3.2533959e+30
1.9030134e+36 2.2799126e-41 -1.8119812e-05 -3.036104e+29
-1.383346e+32 2.2799126e-41 1.1047893e+16 1.8320854e-32
8.1933642e-36 2.2806133e-41 9.9027486e+37 -1.7750794e+16
1.0217794e-15 2.2780909e-41 -7.6098303e+37 -14.640189
-5.4625128e+15 2.2779508e-41 1.6562998e-31 -1.2889157e-05
-7.6129999e+11 2.2780909e-41 3.9916362e-28 1.1086785e+22
3.9349115e-07 2.2780909e-41 -1.953125 -3.9963527e+23
7.6239257e+19 2.2810336e-41 -9.6268946e+19 -2.9911307e-20
-7.7839029e-22 2.2810336e-41 5.8004816e-18 -0.056946322
-1.8797204e+31 2.2813139e-41 -1.5279511e-10 1.7379804e-29
-2.1489087e-27 2.281454e-41 0.00018882751 22.032
2.0948744e-22 2.2793521e-41 9.5057739e-29 5.0796172e-17
6.0474561e+29 2.2793521e-41 3.3280069e-31 -1.8600791e+29
9.9684852e-25 2.2794922e-41 2.920667e+35 5.6156036e+26
-2.6441418e+11 2.2790718e-41 -3.893825e-38 -1.5598197e+08
-6.2832328e+09 2.2796323e-41 nan 1.0723094
1.1928847e+33 2.278231e-41 3.4860392e+30 -1.7817706e+10
5.2609596e-26 2.2811738e-41 1.7367562e-26 4.4403296e+16
1021.0202 2.2810336e-41 9.2807706e-17 -7.2607379e+23
1910825.2 2.2808935e-41 -1.7834255e+18 -8.740634e+26
-1.6630843e+09 2.2811738e-41 -4.8378512e+13 -4.0666404e+37
1.598866e+26 2.2811738e-41 3.4357061e+20 4.7463132e-14
2.7230306e-38 2.2790718e-41 -4.4560286e+10 3.3758289e+22
2.5968919e+27 2.2810336e-41 9.3241387e-18 -6.9026928e-28
4.3736009e-27 2.2811738e-41 2.3111159e-32 6.3095021e-31
-8.2795957e+14 2.2811738e-41 3.9674342e-07 2.4123641e-12
7.90178e+27 2.2813139e-41 1.9820571e-19 -1.1127385e-11
0.0017643451 2.281454e-41 -1.6957203e-22 1.1410148e+36
-2.6311048e-07 2.2790718e-41 -3.2822527e-21 -0.02377338
4.5597493e-38 2.279212e-41 -1.0921229e+17 1.0348314e+11
-1.2178103e+20 2.2796323e-41 -5.1292304e-14 -3.9877241e-28
2.8060966e+09 2.2794922e-41 3.1224069e-38 -4.2055087e-34
1.4082464e-19 2.2794922e-41 8384 3.7924991e+12
1.8033388e-21 2.2799126e-41 -1.5317276e+35 -7.6085489e+09
4.3422246e+35 2.2797725e-41 -4.6809608e+27 1.6085349e+09
1.5701933e+38 2.2797725e-41 -6.4618449e-17 9.3322618e+13
-2.6637823e+36 2.2801929e-41 6.7777217e+28 2.7818143e-12
-1.8859342e-29 2.2801929e-41 -8.4442493e+14 -1.5479755e-19
-3.0367625e+10 2.2800527e-41 -1.5171242e+34 -2.3080514e-08
3.6728637e-21 2.2848171e-41 4.7657522e-10 62981816
-33.688824 2.2839764e-41 -1.7152381e+14 2.9891484e+26
4.3212165e-35 2.2841165e-41 8.7230587e+35 8.2111015e+27
-7.3661939e-29 2.2817343e-41 5.9974054e+23 -2.0978649e-07
9.0472002 2.2836961e-41 3.0765575e-28 1.74267e-36
-9.1697908e+36 2.2848171e-41 -1.7957098e-19 -2803.9673
3.5441037e-18 2.2817343e-41 -2.1642609e+09 -3.6106111e-22
2.3954171e-32 2.2815942e-41 -1.0695475e+08 -4.6972037e-08
-2.1407977e-21 2.2849573e-41 472 -8.6298034e+10
5.2080773e-06 2.284677e-41 0.00011825562 -5.9122618e+10
1.8977928e+15 2.2848171e-41 -1.6411263e-20 7.0050648e-14
-3.5055801e-29 2.2839764e-41 7.8443918e-12 3.9058414e+21
1.1190671e+10 2.2836961e-41 -4.6549576e-36 -6.4842631e-10
8.0270887e-14 2.2834158e-41 4.1985273e-32 62013.891
-4.7457564e+17 2.2827152e-41 -4.371861e-32 7751.9619
5.6057535e-37 2.2829955e-41 -6.1957448e+25 7.0141504e-11
1.3020079e-21 2.2824349e-41 -4.2916781e-12 -0.14867541
-1.0686488e+33 2.2820145e-41 5.5294311e-18 -2.4597127e-25
3.4683028e-06 2.2827152e-41 1.6283043e+37 76153264
2.8372557e+25 2.283556e-41 -6.0136386e+21 1.0533396e-12
1.1299536e-21 2.2817343e-41 -2.9490299e-17 1.7882175e+37
3.0957719e-06 2.2820145e-41 3.813093e+34 -2.542829e-33
-4.7829016e-37 2.2821547e-41 2.6481166e+18 -0.20043953
-4.8360538 2.2822948e-41 -5.995417e+16 -1.4505217e+38
1.3681816e-21 2.2827152e-41 6.7126014e+37 -1.149506e+08
-7.938262e-14 2.2832757e-41 9.2358977e+14 -324094.03
-7.8746242e+20 2.2817343e-41 -1.8822076e+34 3.1835189e+35
1.8364943e-08 2.2817343e-41 -6.3007898e-25 5.3386703e-31
2.2951286e-29 2.2820145e-41 0.18261719 -1.5183278e-19
-3.6381644e+25 2.2849573e-41 -1.8422967e-20 5.7013554e+11
-243.7534 2.2841165e-41 2.3792006e-35 -9.0555067e+37
-2.4896821e+25 2.2828553e-41 6.954411e+13 5.4838726e+08
1.5140989e-19 2.2831356e-41 nan 2.5867011e+17
4.9216886e+22 2.2834158e-41 -0.00035667419 3.7372116e-05
0.014511299 2.2832757e-41 3.0423614e+33 -2.2056526e-27
4.6772268e-25 2.2834158e-41 1.6559768e-26 7.0483225e-39
3.1272887e-18 2.2832757e-41 -1.9815838e+18 2.4136562e-24
-1.4690694e-12 2.2824349e-41 -0.20800781 -4.4470065e-07
2.33618e-24 2.2827152e-41 -14464 2.8273813e+30
2.1552347e-24 2.2828553e-41 3.6267775e+25 -4.4204664e-20
-515590.19 2.2832757e-41 -2.4956109e+08 1.4003006e+35
-3.6962575e-08 2.2832757e-41 4.5634028e+09 -1.8296782e+30
1.2989395e+08 2.2831356e-41 -3.8539999e-20 -3.4512684e-28
8.3513786e-21 2.2831356e-41 2.6702881e-05 6.4950072e+16
-2.5334008e+10 2.2822948e-41 -1.44355e-08 -3323.9778
65733408 2.2821547e-41 3.5494217e+33 3092451.2
3.9748026e+14 2.2822948e-41 -5.7893097e-37 -2.6617378e-14
-3.5455096e+31 2.2822948e-41 -0.00036048889 -3.4002364e+18
0.0039597452 2.2834158e-41 -1.7130394e-17 -9.6512675e-30
-2.6654682e-36 2.2834158e-41 -2.903471e-36 -180992.69
-8.5155441e-14 2.2832757e-41 -118272 -9.0216784e+35
-3.3716267e-21 2.283556e-41 -5.067817e+27 1.2803648e-30
7.2689148e+18 2.2832757e-41 -2.7670116e+19 5.5010118e-38
-1.3744808e-13 2.2836961e-41 -3.2014214e-09 -9.6646511e+33
1841174.5 2.2843968e-41 352 -2.0577512e-10
1841174 2.2843968e-41 4.1007996e-05 -1.6203869e+23
1.7530745e-10 2.2836961e-41 -231 1.307862e-13
1.4332624e+24 2.2838362e-41 -5.3776428e-16 1.5303197e-21
2.1509268e+22 2.2832757e-41 181 -6.8025411e-06
2.12811e-12 2.2834158e-41 -1.1079563e+29 -1.760862e-13
-4.2137111e+33 2.2831356e-41 -9.9358609e-26 7.5818658e-09
-8.1227504e+13 2.2832757e-41 1.2069915e+29 3.9662862e+10
-1.0401974e+11 2.2845369e-41 -3.1752379e-14 -3.4639763e-12
-66257336 2.2843968e-41 9.0594199e-13 -6.094141e-24
48693672 2.2843968e-41 -5.087486e-12 6.339745e-24
-6.5835659e-25 2.2839764e-41 2.796875 9.7578656e+10
-1.5450192e+27 2.2831356e-41 -2.7767904e-27 1.9124866e-25
-8.5040014e-28 2.2829955e-41 -2.9189876e-34 15.516061
-3.1075793e-20 2.2836961e-41 -1.7756098e+24 2.5803698e+25
-2.2708618e+28 2.2842566e-41 3.3229589e-06 -1.6604674e-36
-3.9908284e-36 2.2834158e-41 -0.77734375 3.3996152e-35
1.9512153e+27 2.2842566e-41 -1.1296203e+28 -1.0138321e+36
-961539.56 2.283556e-41 -1.323489e-21 8.5154606e-11
2.8258731e+26 2.283556e-41 -6.4801498e-12 -2.0435258e-19
1.6290327e+26 2.2834158e-41 -2.1094237e-15 3.251699e+32
-3.6197488e-21 2.2831356e-41 -1.0141205e+34 -2.8938437e-32
3.8782244e+31 2.283556e-41 -2.8434334e-24 -2.902808e+16
-1.3444726e-36 2.2831356e-41 2.2195122e+24 -2.9182463e-36
-2.4689381e+36 2.2832757e-41 -9.8720193e-08 5.4838447e-36
-3.1017792e+31 2.2834158e-41 1.7795388e+27 1.5030033e-10
-3.9776514e-18 2.2834158e-41 -3.0344038e+26 1.2317386e-07
250622.97 2.2832757e-41 -6.03125 -8.5864882e-22
-40828544 2.2817343e-41 -6.7210949e-28 4.5253653e-13
-1.4268282e+37 2.2821547e-41 -3.4407501e+18 -3.2582072e+10
2.3131511e+36 2.2818744e-41 -1.8359962e+37 -1.3780129e+22
7.0872898e-30 2.2832757e-41 1.0033044e+13 6.6237936e+10
1.8027155 2.2829955e-41 -4.7156602e+32 0.0026665591
6.0341228e-25 2.283556e-41 -31981568 4.9204424e+14
-4.0724333e+25 2.284677e-41 -1.3969839e-09 -1.982177e+12
-3531.9375 2.2843968e-41 4.8158609e+14 2.0867873e-08
1.1094092e+15 2.2822948e-41 -311296 -335373.62
1.5831986e-13 2.2815942e-41 2.5629997e-05 1.6577334e+28
2.1420507e+17 2.2842566e-41 9.4489281e+10 -6.230392e-26
6.6721197e-09 2.2843968e-41 1.2789769e-13 -5.4500532e-12
3.4272827e+18 2.2818744e-41 0.009765625 7.2008258e+25
6.8764438e-26 2.2831356e-41 9.429353e-31 -3.1131591e-13
2.3842901e+21 2.2828553e-41 -2.747718e-37 6408.1709
-1.8694619e-21 2.2831356e-41 6.8961369e+16 -2.5310878e-37
1.4724839e+16 2.283556e-41 5.6645328e-21 -4.5754873e-23
6430804 2.2841165e-41 0.00016880035 -1.2658119e-34
4.6075027e-05 2.2828553e-41 8.6666847e-32 1.8303648e+27
-4.3427861e-22 2.2828553e-41 1.2264322e-30 -5.4689325e-25
-6.8985164e+25 2.2828553e-41 -0.015258789 -6.560935e-37
-1.3298604e-18 2.284677e-41 -1.2030129e-29 1.644427e-08
-2.2991137e+18 2.2827152e-41 -1.5829352e-17 -1.3283749e-35
-3.7776576e+33 2.284677e-41 -1.2221335e-11 -1.530254e-33
3.7884861e-39 2.2849573e-41 -1.7867064e+12 -1.5880293e-09
5.0755033e-18 2.2850974e-41 1.2212453e-15 3.1147965e+30
-1.9155483e+23 2.284677e-41 -1.8611564e-22 1.8544754e+30
1.1624825e-26 2.2850974e-41 -4.6707769e+10 5.7442652e+31
-2.8622132e+13 2.2849573e-41 1.2621774e-28 1.0175128e-19
2.5490793e-29 2.2825751e-41 -1.2116904e-27 2.0720467e-25
-6.3765649e-18 2.2828553e-41 -8.2683274e+14 -1.3610302e-37
1.1506298e-17 2.2841165e-41 2.4214387e-08 -2.597635e+14
3.4274622e+22 2.283556e-41 1.3841203e+08 2.7790783e-15
1.2174481e-05 2.2841165e-41 -1.6747761e+16 5.3023504e-22
1.3493064e+19 2.2841165e-41 9.033829e-08 3.8056121e+18
1.0125225e-38 2.2850974e-41 -8.2206956e+25 1.0564589e-26
2.0204216e-22 2.2834158e-41 -3.6913985e+33 1.8676526e-34
-2.8350053e-06 2.2843968e-41 8.1315163e-20 -1.4152371e-27
9.3787732e+24 2.2839764e-41 1.4293651e+13 7.4574211e-35
-5.2665072e+25 2.2817343e-41 11534336 -204.2524
-1.5543536e-38 2.2822948e-41 7.9822929e-23 -1.4338894e-11
-2.6500656e+12 2.2824349e-41 -2.8627363e+27 1.138428e+36
-1.9085146e-20 2.2842566e-41 -9.9169696e+22 3.2318143e+19
-8.2756525e-19 2.2820145e-41 7.6125077e-29 -3.033996e+38
-6.5393986e-14 2.2828553e-41 -4576 -1.0865028e+18
1.7239688e+27 2.2822948e-41 9.625 -1.5046936e-08
-4.6005372e-20 2.2827152e-41 -8.3432745e-20 -3.265654e-16
-4.8487969e-08 2.2827152e-41 3.1359465e+20 -4680.0791
3.6387334e+34 2.283556e-41 -23680 8.8834678e+17
1.0908679e-29 2.2841165e-41 -2.2629677e-33 -6.2537264e-35
1.5977103e-15 2.2842566e-41 3.8456969e-29 -7.9141316
2.6355439e+27 2.2843968e-41 5.2041704e-17 -3.2732864e+38
-2.6290589e-11 2.2838362e-41 -4.3808666e+11 -2.0668148e-10
9.3807964e+33 2.2829955e-41 1128 -2.7168235e-27
-1.2299021e-25 2.2831356e-41 7.2461022e-22 -2.7548161e+38
2.5881383e+28 2.2834158e-41 6.338253e+32 -4.7727488e-33
1.0125277e-38 2.2850974e-41 -8.0812726e+30 -1.1779989e+17
2.771517e+26 2.2838362e-41 0.001449585 -1.1983686e+37
4.5442322e+12 2.2836961e-41 8.01789e+31 -5.0046243e-16
4.0649352e-24 2.2836961e-41 -2.0342374e+08 -14096.292
635922.56 2.283556e-41 143 -6.0980412e-28
-5.4839554e+23 2.2838362e-41 6.4510029e-18 -1.0270329e+37
8.1846497e-20 2.2839764e-41 1.7037224e+34 5.5025225e-15
1.3493117e+19 2.2841165e-41 -2.7584077e+33 2.7131073e-35
6.622406e+33 2.2820145e-41 -7.9810004e-25 5.4497984e-09
-2.7136424e+31 2.2821547e-41 -1.0819886e+26 -0.00051213737
1.1095342e+29 2.2824349e-41 3.3703774e-32 3.6256304e-32
-681.01984 2.2821547e-41 -1.4213913e+35 15876326
-4.725524e-15 2.2821547e-41 -0.048583984 734218.75
6.1221981e+27 2.2818744e-41 1.3883952e-28 1.2060823e-35
1016852.8 2.2817343e-41 -1.2217878e-26 3.1909821e-28
4268201 2.2820145e-41 6.3424417e-28 1.0965728e+11
4.4688186e+21 2.2820145e-41 1.1759799e+20 -9.6039194e-36
1.2756131e-10 2.2822948e-41 1.2319181e-35 1.1588151e-14
-6.4752407e-27 2.2845369e-41 -1.9942404e-27 8.0371325e+27
-8.3096052e-19 2.281454e-41 -4.9375 -1.4184034e-27
1.1270021 2.2815942e-41 6.8780537e-12 482824.16
-3.521744e-13 2.2817343e-41 -5.0536402e-31 1.4129978e+08
3.4273578e+18 2.2818744e-41 -4.8450285e-19 1.7886619e-34
-2.257129e+08 2.2818744e-41 2.2876966e-28 1.5137661e-21
-2.6019403e+32 2.2839764e-41 -386 -5.1072194e+18
1.4920303e-06 2.2842566e-41 1.6250535e-28 1.0625893e+17
0.0009203222 2.2843968e-41 -4.7045897e-24 -6.0608529e-17
8.3602884e-14 2.2845369e-41 -1.5913533e-25 2.4177533e+35
-1.1919476e-29 2.2873395e-41 2.0409175e+32 -6.7871462e-20
-9.2883579e+37 2.2873395e-41 2.4848963e+14 3.5014474e-31
2.4716266e+37 2.2870592e-41 -1.1267189e+27 2.4381417e-29
-1.412475e-19 2.2871994e-41 1.1746887e+23 2.3989161e-21
-4.6786042e-09 2.2873395e-41 7.5085627e+23 2.9475328e-05
9683310 2.2873395e-41 6.2369315e-30 1.9420261e-24
-8.642444e-35 2.2873395e-41 2.286989e-19 2.8374973e+30
4.4132599e-14 2.2874796e-41 5.2693443e-31 -0.0001270838
116.87775 2.2874796e-41 -2.797991e-30 4.9712182e-17
4.3864941e-25 2.2870592e-41 -1.900519e+18 -8.3299156e-32
-1.8921177e+37 2.2869191e-41 3.5100811e-12 -1.6948386e-15
-5.153855e+08 2.2884605e-41 -1.4123047e+37 6.9206661e+09
-3.1201893e-21 2.2873395e-41 1.0290377e+28 -2.0042429e+37
-4.1216391e-31 2.2874796e-41 1.0408341e-17 1.5466957e-18
1.914981e-12 2.2871994e-41 -4.2836449e+35 -3.941404e-06
-3.0053372e-18 2.2863586e-41 9.2084099e+12 4.1416671e+34
1.9220384e+12 2.2852375e-41 -1.0164395e-20 -26655.73
-1.2858169e+18 2.2879e-41 4.1689903e-22 2.6777897e-30
-2.471387e-26 2.2874796e-41 7.2311237e+22 -2.4889563e+38
-5.5536316e+25 2.2869191e-41 -2.7233853e-34 -1.5880752e+34
7.2048374e-06 2.2864987e-41 1.198326e+30 7.3183109e-12
-4.6469359e+25 2.2860783e-41 -1.6866933e+28 -8.4925009e-30
1.138785e-36 2.2866388e-41 -2.6301686e-37 5.9857428e-31
7.0558253e-06 2.2863586e-41 -27.125 -1.480409e+24
-6.2213585e-06 2.2855178e-41 3.7470027e-15 -4.484211e-16
8.8159839e+17 2.2859382e-41 -1.0791617e-27 -2.9749205e+31
5.8637297e-06 2.2852375e-41 -7.7628876e-17 4.8483708e+16
7.3602947e+35 2.2853777e-41 3.2879687e+30 -2.898311e-37
1.461323e+10 2.2850974e-41 12.4375 -6.0152945e-38
-1.6089615e+10 2.2856579e-41 -0.00051116943 -1.390633e+38
1.6491091e-20 2.2886007e-41 3.9107097e+21 8.6560059e+18
-1.1202883e+18 2.2873395e-41 -3.7289283e-11 -1.4882271e+12
-3.2260567e-21 2.2871994e-41 -9.0719004e-29 -1.8396431e+18
-8.7082146e+11 2.2880401e-41 1.4422124e+38 1.1435674e-22
3.0568976e-28 2.2881803e-41 -8.5819989e-24 -1.4491353e-24
-1.9675537e+17 2.2874796e-41 -6.6292987e+19 -1.1670855e-14
-4.5030437e-23 2.2871994e-41 2.1391604e+30 -283141.12
-1.3406508e-33 2.2864987e-41 8.0046463e-34 7.4256532e+23
-4.0579953e-27 2.2866388e-41 3.434252e-09 6.8382314e+19
-6872.1196 2.2869191e-41 -62.75 9.5876673e+15
1.5788556e+13 2.2869191e-41 5.2735594e-16 -1.6681096e-14
-4.5030411e-23 2.2871994e-41 -98 3.2225141e+28
-41.938435 2.2874796e-41 6.1094761e-07 7.4353854e+28
2.8232365e+17 2.2879e-41 -3.8252052e+09 -1.2476955e+12
-8.5684886e+25 2.2884605e-41 8.7278275e-18 -1.5503931e-31
4.858485e+25 2.2863586e-41 1.0358279e+18 -1.1892461e+17
3.2373058e+29 2.2862184e-41 1.0299368e-25 6.5198805e+14
-4.2511232e-20 2.2856579e-41 -5.4631984e+12 -1.8482648e+19
-5.5665763e+23 2.2866388e-41 5.2588273e+25 -15695.961
-2.980526 2.2866388e-41 6.0396133e-14 7079.9917
-4.3314045e+22 2.2869191e-41 5.390184e+11 -6.586327e+27
6.6087741e-06 2.2859382e-41 8.3236955e-09 -2.6916039e-24
1.8086324e+10 2.2863586e-41 -2.7634783e+32 1.2602936e+14
-9.9258837e+32 2.2850974e-41 -1.0743406e-11 1.1952e-15
-1.5927716e-31 2.2853777e-41 -4.0366414e-22 -1.530908e-29
3.7439459e+25 2.2852375e-41 1.200533e-10 2.1119317e+33
-3.7137223e+25 2.2850974e-41 -2.4158453e-13 -3.1187731e-37
-4.4958013e+25 2.2859382e-41 8.5309148e-07 -2.3716372e-17
-2.3626919e-28 2.2886007e-41 -0.0047607422 -8.0950769e+09
-4.0599633e-31 2.2880401e-41 -6.5886457e+25 2.8076262e+22
1.2863717e+12 2.2884605e-41 4.724464e+11 -1.4574677e-28
1.1864355e+17 2.2886007e-41 -5.8233515e-21 -4.4182532e-17
-1.0488861e-26 2.2884605e-41 9.8744686e-24 -31328.76
7.9754868e-28 2.2880401e-41 5.409943e+25 -4.3982946e+20
-7.6468415e-15 2.2874796e-41 4.2243044e+21 2.060569e-07
-7.6276547e-07 2.2870592e-41 1.0389388e-21 -9.4668817e+14
6.5190006e-25 2.2873395e-41 -454656 1.4346414e-23
0.003322649 2.2876197e-41 1.0625181e-17 -3.2632063e+30
-6.0747092e+33 2.2876197e-41 1.6309984e-37 -2.6839692e-30
4.6056081e-38 2.2876197e-41 -4.2282945e-28 4.3022634e-35
-0.06146317 2.2866388e-41 1.5735626e-05 7.6983419e+28
7725160 2.2869191e-41 -5.5614694e-29 -4.3774701e-35
-63936.82 2.2870592e-41 -1.3443255e+27 -9.1350468e-28
-1.4239916e+09 2.2876197e-41 3.2923708e-10 2.8263116e-32
-2.3358025e-06 2.2876197e-41 -5.6205041e-16 3.3064191e+26
-2.1391991e+32 2.2873395e-41 -254976 -4.0159636e-22
6.8024795e-31 2.2874796e-41 -2.6091292e+35 -54719.746
2.3841274e+17 2.2864987e-41 -3014656 -3.9443093e-38
-1.187494e+16 2.2862184e-41 2.3869795e-15 2.3380519e-31
1.454101e-31 2.2864987e-41 4.4045713e-19 -8.9054694e-35
-3.8601687e+11 2.2864987e-41 -2.1930333e-28 -5.0931963e-08
-9.2536679e-34 2.2879e-41 -3.6440325e-37 2.7386846e-31
2.1793947e-35 2.2877599e-41 4.7861769e-26 9.7588916e-14
-0.44092384 2.2876197e-41 -2.189089e-29 -1.6821472e+18
-1.2590181e-13 2.2866388e-41 -1.1064089e+28 13360.076
-9.2536669e-34 2.2879e-41 -9.6633812e-13 -1.0180346e+21
3.6016767e+28 2.2876197e-41 -2.4538445e-37 -3.3887935e+25
1.0212308e+34 2.2880401e-41 -0.0049438477 -5.2142911e+12
6360.0889 2.2864987e-41 -5.1905583e-23 8.3778145e-28
68.876389 2.2881803e-41 1.6606223e+32 -3.1174729e-23
4.810956e-21 2.2881803e-41 -1.3883952e-28 5.6848313e-38
-5.684873e-06 2.2862184e-41 -1.1682311e+12 2.0809273e+12
1.814093e+35 2.2873395e-41 1.1786514e+36 -5.8728667e+30
-1.3693568e-31 2.2881803e-41 6.6229792e+28 3.1142246e+28
121729.38 2.2886007e-41 4.0889338e+34 7.3090887e-06
6.8393152e+34 2.2850974e-41 2.1420419e-07 -4.6390244e-21
-2.3673713e+32 2.2870592e-41 3.8326006e-32 -1.1919769e-12
-2.0831713e+37 2.2860783e-41 -2.8046711e+38 3.783985e+32
0.00027037167 2.2874796e-41 1.9066706e-32 -1.3409955e+31
-9.28815e+37 2.2873395e-41 3.1019273e-24 6.2430463e+24
-1.4282889e+29 2.2873395e-41 -2.7809728e+17 -1.1947249e-08
5.3849772e-31 2.2880401e-41 -8.2041534e-29 -1.7903171e-14
6.1337038e-09 2.2874796e-41 1.4213913e+35 2.5048831e-23
-9.2881409e+37 2.2873395e-41 4.7249901e+35 6.8634346e+30
-0.0010967435 2.2874796e-41 7.3859034e+17 1.291686e+19
8.9624058e+32 2.2874796e-41 4.0223947e-38 1.4794549e-14
-9.2881277e+37 2.2873395e-41 1.3073986e-11 -8.1432404e-12
8.9190773e+21 2.2870592e-41 -8.7411174e+13 1.5657116e+21
-2.1078427e-26 2.2862184e-41 8.8675733e-12 1.3965218
1.5546066e+25 2.2860783e-41 -6.8833828e-14 6.1329981e-33
-1.0523304e-30 2.2859382e-41 -8.5005443e+16 8.5666949e-37
8.3388402e+36 2.2857981e-41 1.7147041e+38 11696.304
-6.2544938e-18 2.2855178e-41 -2.3859402e+14 6.1190355e-18
-1.5620576e-10 2.2869191e-41 8 6.6266096e+25
-1.182466e+34 2.2884605e-41 4.7663663e+33 4.8711481e-25
250.74992 2.2853777e-41 7.7141817e-39 1.2283432e-38
-1.9205272e-25 2.2852375e-41 74752 -1.9286277e-25
-7.2703726e-32 2.2863586e-41 3.3373098e-19 1.0284203e+32
5.7913386e+16 2.2884605e-41 2.2148194e-33 1.304917e-22
-6.6415141e+25 2.2856579e-41 -3.4074448e+34 -3.8815261e-16
3.1361701e-38 2.2855178e-41 3.0034251e+24 0.00032950347
-0.15502885 2.2850974e-41 -2.2383928e-29 -4.4364962e-13
2.7992858e+21 2.2862184e-41 -1.6093825e+25 -2.0447128e-23
4.1632189e+25 2.2856579e-41 -1.5481124e+15 -42927364
7.144844e-17 2.286779e-41 -1.6263033e-18 12336.311
2.5712597e-13 2.2863586e-41 4.9605862e-36 5660830
-1.1777279 2.2859382e-41 1.3254001e+09 0.0033455826
-1.8964235e+16 2.2881803e-41 9.5756736e-16 2.2635335e+12
3.7309688e-26 2.2874796e-41 1.0842022e-16 -1.9640003e+38
1.9483077e-06 2.2871994e-41 21364736 1.3313556e+37
-2.5828031e-12 2.2881803e-41 -3.9199331e+19 -1.0256601e+16
1.9784304e-27 2.2881803e-41 1.6320278e-14 -1.0050774e-16
2.2271291e+09 2.2881803e-41 4.7975846e-11 -4.3777291e+24
114558.39 2.2879e-41 -9.3266738e+22 4.9592639e-37
-5.627063e+35 2.2874796e-41 3.3614924e-09 8688.3145
527342.56 2.2866388e-41 -4.98733e-18 -7.9582935e-10
1.7523327e+36 2.2856579e-41 -1.173825e-27 5.5975007e+36
-7.9746161e-30 2.286779e-41 4.8148249e-35 -1.0383294e+12
4.7376222e-31 2.2866388e-41 2.3093506e-17 -1.5687026e+10
3.6373534e-17 2.2864987e-41 -3568 -1.992387e+28
-3.306845e-09 2.2873395e-41 1.0600318e-30 -0.15405758
1.2445837e-32 2.2870592e-41 16.5 -2.4068833e-36
290.4917 2.2873395e-41 -2.436266e+30 -2.6770905e+29
6.5596757e+22 2.2873395e-41 1.2280365e+31 -2.4789718e-34
-1.6771923e+12 2.2863586e-41 -2.6596368e+25 1.6465851e+14
-12271697 2.2879e-41 3.3034285e-19 0.83889079
-4.3306992e+19 2.2877599e-41 1.242062e-15 -4.9683812e-14
-1.2438298e+14 2.2871994e-41 133120 -2.0385473e+15
0.0012531389 2.2873395e-41 2.8649083e-11 -2.1921085e-12
6.7845434e+33 2.2864987e-41 0.00026893616 -8.1958687e+09
-8720.126 2.2864987e-41 5.2254146e-27 -2.6920394e-20
1.8496494e-13 2.286779e-41 69120 -6.1911279e-27
9.1782469e+27 2.2857981e-41 -2.936347e+18 1.112043e-06
-2.8921777e-14 2.2863586e-41 1.6475729e-34 3.189529e+33
8.9817971e-14 2.2866388e-41 2.7856651e-30 -4.2648963e-29
3.8415725e+21 2.286779e-41 -1.4261069e+32 2.4704562e+23
-3.9421972e-16 2.2855178e-41 -3.5811354e-12 -3.3833051e-37
-4.2405046e-20 2.2856579e-41 1080 4.7859838e-19
-7.8843928e-16 2.2863586e-41 -3.8959523e+22 1.8532831e-37
354.50461 2.2859382e-41 1.8902369e-25 -5.175238e-10
1.5307086e+37 2.2860783e-41 -2.9665159e-13 -8.3465191e-28
-8.8561418e+37 2.2863586e-41 -2.53125 -1.4477352e+23
-2.6240949e+21 2.2866388e-41 2.6683722e-36 -6.7960007e-37
5.3556888e-30 2.2870592e-41 6.4623485e-25 -2.0442947e+16
-2.6241006e+21 2.2866388e-41 6.8101449e-19 -5.5784352e+23
-2.2915394e-12 2.2871994e-41 -7.2057594e+16 3.6457359e+25
-9.492065e+24 2.286779e-41 -1.3855275e-23 3.7420863e+11
0.26416597 2.2863586e-41 1.7957098e-19 -1.9109823e-26
-5.2291334e+32 2.2864987e-41 5.247427e-24 -3.4771475e-19
-1.2597888 2.2869191e-41 -5.1727511e-12 1.5650007e-12
2.8934531e+32 2.2853777e-41 6.1713453e-37 1.0160746e-26
-3.5342742e+33 2.2853777e-41 -4.6838616e-31 -9.925627e+26
2.2558861e+27 2.2856579e-41 12928 -0.00068380102
8.936347e-26 2.2859382e-41 3.6077725e+12 2.2771826e+17
9.5230537e-23 2.2869191e-41 -1.1373733e-24 -2.3694875e+30
-5.7824535e-28 2.2852375e-41 2244608 -3.5101446e-32
-1.9059702e+19 2.2853777e-41 -5.0852413e+12 6.0654337e-08
2.6636043e+14 2.2853777e-41 9.5820602e-21 -2.1012215e-16
-3.4403273e+12 2.2863586e-41 3.588806e+16 -1.4086666e-07
8.4177746e+23 2.286779e-41 -8.3236955e-09 -7.223988e+14
2.3199326e+30 2.2871994e-41 7.853349e+34 -3.5640025e+27
0.30908859 2.2883204e-41 9.0216158e+34 1.2289322e-29
0.01356527 2.2850974e-41 1.9024576e+37 9.4823748e-28
-4.751962e+23 2.2855178e-41 -1.4621508e+38 -1.6384929e+32
-3.0873576e-12 2.2863586e-41 -9.1481672e-34 1.2386986e+13
6.4726676e-37 2.286779e-41 5.6843419e-13 2.6327281e+34
-8929505 2.286779e-41 -7.1944115e-28 -9.1617089e-17
-6.8058203e-14 2.2886007e-41 -3.8672673e-31 -4.8403732e+09
8.9621009e-35 2.2869191e-41 4.5550406e-37 -2.208417e-11
-2.1088702e-35 2.2871994e-41 1.7448305e+10 1.0821126e+37
6.8958534e+27 2.2886007e-41 -3.6138386e+36 5.1479571e+20
-6.8546106e+18 2.2850974e-41 23199744 1.1358471e-36
4.2749354e+10 2.2874796e-41 -9.1482803e+11 -4.3252641e+36
0.013015987 2.2850974e-41 1.9743781e+19 -5.4637735e-35
3.5007374e-21 2.2877599e-41 -1.6550729e+17 -1.1550082e+30
3.500737e-21 2.2877599e-41 405504 63.563766
-3.4025856e-38 2.2852375e-41 2.4738256e-10 3.2067995e-28
-1.4144634e-13 2.2853777e-41 -3.5469505e-21 3.7849878e+11
-2.0519017e-17 2.2852375e-41 -1.0335409e+14 -1.5582614e+19
-3.362003e+21 2.2853777e-41 6.3468606e+24 -9.5010859e-05
7.8054904e+20 2.2857981e-41 -1.8553692e-10 -9.6165334e+30
5.6718608e-18 2.2886007e-41 -1.4087493e+12 1.1342171e+20
-3.0005053e-36 2.2880401e-41 -1.2369506e+13 2.4673494e+21
-1.7780161e+24 2.2879e-41 1.3570932e-24 2.8342636e-05
-8.6539621e+23 2.2877599e-41 1.1487957e+35 9.2414361e-24
0.39893514 2.2884605e-41 -1.0354131e-17 1.4664123e+34
1.053635e+11 2.2859382e-41 -33554432 1.3999194e+27
5.4134994e+18 2.2856579e-41 4.2836449e+34 1.4753641e+19
6.3820364e-28 2.2857981e-41 5.427363e-27 -1.8764195e+11
-2.1660806e+15 2.2877599e-41 1.4365679e-18 6.4293791e-28
-1.5291344e+32 2.2876197e-41 -0.234375 2.0578957e-25
5.6446632e-11 2.2879e-41 -3.2800994e-34 -7.0645832e+25
7.9995876e+11 2.286779e-41 796 1.7435366e+25
4.2419559e-32 2.2880401e-41 -1.5061021e-38 1.1301506e+17
3.6899916e-20 2.2876197e-41 -1.1379786e-15 -2.5198139e+25
106.62746 2.2869191e-41 8.165943e-32 7.1212762e-24
1.3195448e-20 2.2870592e-41 2.5477163e-22 3.7892065e-08
1.3984679e-08 2.2870592e-41 1.0628495e+18 1.3074744e-28
6.5437331e-39 2.2869191e-41 4.3880388e-30 -2.3593608e+30
-9.2417416e+18 2.286779e-41 1.6370905e-10 2860.082
1.3739849e+16 2.2881803e-41 3.1640559e+33 -1.797678e-38
-8.7373022e-23 2.2877599e-41 5.1427878e-39 2.3115703e+24
-3.1135739e-21 2.2873395e-41 1.515625 -3.5156802e-07
-1.3457426 2.2879e-41 9.6559525e-06 -9.6362611e+08
-9.7479004e+09 2.2877599e-41 8.0315888e+11 -0.01901238
0.006080783 2.2886007e-41 2624 614.99615
3.3911598e+26 2.2883204e-41 4.8665466e-36 37291220
-0.015030231 2.2877599e-41 1.1915916e+33 1.4431612e+14
6.1825818e+09 2.2879e-41 1.1660904e-34 -2.2225205e+23
-1.7485516e-10 2.2880401e-41 2.0890721e+14 9.7254933e-17
1.4934322e+19 2.2876197e-41 -3.1086245e-14 -14.078416
2.7618656e-31 2.2877599e-41 -9.3305973e-22 -3.5475444e+28
2.2850075e+32 2.2877599e-41 3.4788172e-11 -1.3503338e-14
9.3955613e-15 2.2874796e-41 nan 4.122492e+33
-9.7915842e-12 2.2874796e-41 1.2714147e-34 -1.0166666e+37
-1.3905974e+35 2.2850974e-41 7.5108298e+31 5.9902972e+15
-7.5189248e+31 2.2874796e-41 -4.5606021e-31 -3.3712449e-18
-1.0187514e+37 2.2859382e-41 -1.7639699e+20 -9.5899395e-09
5.1378648e+19 2.2859382e-41 38 2.7139203e+11
-1.0239504e+14 2.2852375e-41 3.41212e-24 -7752.144
3.0011476e-15 2.2879e-41 1.9887896e+19 -1.2084274e-07
-1.9462162e+11 2.2859382e-41 -0.0034942627 -1.0367998e+08
-2.3328357e-32 2.2859382e-41 -8.8476326e+11 -1.6910815e+33
2.1978806e+27 2.2855178e-41 -4.7546396e-34 -1.7420172e+19
2.8643496e+14 2.2855178e-41 8388608 1.1613832e+14
-2.0852147e-15 2.2877599e-41 -0.004486084 3.1270675e+38
1.5607051e-19 2.2879e-41 -2.4352197e-21 5.8069183e+13
-3.0978828e-22 2.2879e-41 -1.6479873e-16 -7.3091533e-06
7.9597803e-28 2.2880401e-41 6.7734138e+18 -1.2323791e-13
-488.5112 2.2859382e-41 2.0444669e+34 1.0646751e-30
8.197509e-33 2.2857981e-41 -0.00037765503 1.0931172e+30
0.0019875425 2.2855178e-41 3.8556755e-07 39650412
1.4499163e-05 2.2877599e-41 8.0874011e-35 5.7364582e+26
5.7673216e+23 2.2877599e-41 1.2201898e+36 1.8549582e+17
8.9502197e-07 2.2859382e-41 5.3248111e-29 2.4996719e-23
5.3956746e+11 2.2862184e-41 1.2805685e-08 -3.6198362e-09
6.658282e-38 2.2860783e-41 -3.9672934e-38 2.934879e-21
-488.51138 2.2859382e-41 1.0643273e+15 4.0860881e-35
7.754002e-13 2.2870592e-41 -1.6298145e-09 -1.566512e-06
-1.6502143e+35 2.2870592e-41 -1.9521462e-22 1.3144802
-330251.97 2.2871994e-41 8.125 2.2234951e+33
-1.8005062e+31 2.2871994e-41 -8.8544372e+22 2.9064432e-20
-4.1189305e-38 2.2871994e-41 -7.6168561e+09 -2.9695091e+32
-450.51178 2.2871994e-41 1.8981966e-30 0.00011551526
1.269678e+31 2.2871994e-41 -2.4555607e-32 -1.0077113e-06
3.2295009e-12 2.2873395e-41 -1.185411e+12 2.6072291e-28
-6.5181471e+09 2.2871994e-41 1.3259576e-35 4.3017552e+10
6.202075e+26 2.2871994e-41 1.0970097e-30 -1.2494981e+20
-7.4898975e+24 2.2881803e-41 1.7881393e-06 1.6366292e+38
8.8755456e+09 2.2873395e-41 -6.2980026e+15 4.2710077e-30
0.0012531733 2.2873395e-41 -2.3394823e-06 4.9535393e-18
5.7774418e+16 2.2884605e-41 -5.3875151e+31 1.7209488e-34
4.4203158e+25 2.2886007e-41 -3.0534597e-25 7.5322456e+17
-32833.559 2.2880401e-41 1.9515639e-18 28148462
-5.9536614e-25 2.2870592e-41 5.8546917e-17 4.000238e+37
13.953557 2.2869191e-41 -6.8994355e+13 -23264.326
4.6845168e-36 2.2866388e-41 -1.4337632e+15 2.4561067e+32
-1.6765869e+16 2.2866388e-41 8.2331431e+15 1.2997015e-17
3.5693448e+31 2.2866388e-41 4.2108657e+17 5.7493647e-20
24.282169 2.2870592e-41 -1.3634562e-06 3.0213062e+35
1.7510531e+14 2.2870592e-41 27.375 -7.4802611e+21
-4.7700097e-20 2.2869191e-41 1.2217878e-26 1.1441812e-09
1.4477164e+33 2.2919638e-41 -2.0321057e-27 5.5868222e-13
3.2856441e-36 2.2919638e-41 2.0954758e-09 1.3005329e+22
2.4991965e+11 2.2918236e-41 -8.8512713e+28 -7.4965345e-23
-6.0370341e-11 2.2916835e-41 6.9211003e+25 2.102395e-28
2.3490622e+29 2.2915434e-41 -2.0291418e+20 -3.3487954e-28
0.0037957104 2.2914032e-41 1.1459283e-32 -1.0768125e-19
9.8140738e-08 2.2912631e-41 -2.0469737e-16 -8464.3301
-6.4195069e-38 2.291123e-41 -80 1.608437e+34
1.3125727e+14 2.291123e-41 1.700807e+12 7.5384348e+15
9.299625e+30 2.2909829e-41 -3.2399932e+36 -1.8595589e+35
7.6997456e-36 2.2908427e-41 5.6954322e+20 -2.3121179e-17
-8.1911303e+35 2.2905625e-41 -2.3068672e+08 8.6753776e+14
-2.8811733e+38 2.2904223e-41 2.3172789e-30 5.8010637e-31
-2.6843178e+32 2.2902822e-41 2.8003187e+12 -2.7976828e-09
-2.4874287e+26 2.2901421e-41 nan 1.6580489e-33
6.6173191 2.2921039e-41 113.5 -2.6769333e+23
1.6218457e-37 2.2921039e-41 1.4087493e+12 -4.7611873e+33
-3.2896589e+32 2.2915434e-41 2.4266565e+11 -8.2138565e-22
2.4897496e+36 2.2918236e-41 -5.3871295e-19 3108767.5
-1.8652667 2.2909829e-41 -7.0429773e-16 1.2980812e+09
-1.3376567e-17 2.2905625e-41 -2.1398223e+21 5.8014543e+21
-1.8361339e+12 2.291123e-41 2.4739012e+14 -1.4339042e+34
-3.1251664e+35 2.290002e-41 -1.9095836e-13 -3.0507636
5.6912799e-32 2.2907026e-41 5.6908317e+10 5.3141209e-33
8.063631e+23 2.2894414e-41 -3.0856727e-37 2.2320262e+15
-7.3185367e-17 2.2919638e-41 -1.2721127e+35 13679.085
-1.280942e-14 2.289021e-41 -1.0857677e+13 4.9174946e-24
-1.9392119e+12 2.2887408e-41 -6.1939284e-21 -3.4592898e-18
-15.984619 2.2891612e-41 -3.2474023e-15 -1.3669176e+16
1.4974966e-12 2.2894414e-41 -9.059906e-05 -1.0328198e+09
1.3801787e+32 2.2921039e-41 2.8334199e+24 1.1337768e+08
7.5540847e+21 2.2891612e-41 -1.4199972e-35 -9.2132107e-10
-1.3720119e+21 2.2888809e-41 6.3410683e+18 -1.4866166e-15
-1.0185962e-26 2.2916835e-41 -0.703125 -6.9234694e-11
1.5043312e-09 2.2918236e-41 -4.3194615e-16 1.3647227e-27
1.279665e-06 2.2919638e-41 -1.9876761e+33 1.0255336e+33
-4.7610101e-26 2.2887408e-41 -2.9685907e-08 5.2816585e+19
-7.2908643e+11 2.2908427e-41 -8.8544372e+20 1.3599655e-11
8120.1162 2.2908427e-41 2752 3.2875098e-20
-10480.235 2.2912631e-41 -257024 -1.8851454e-13
-305.50739 2.2915434e-41 1.5398976e-36 -7.0439141e-24
7.6057079e+28 2.2916835e-41 1.360188e-33 3.1788702e-16
2.2936251e-38 2.2916835e-41 -8.4774134e+30 -2.9291372e+19
-591.01471 2.2919638e-41 -32 1.5655533e-24
1.8209657e-05 2.2895816e-41 9.5958487e+24 -3.985999e-12
-6.8032799e+09 2.2898618e-41 -5.0067902e-05 0.019317152
-4.0382595e-09 2.2898618e-41 -6.0615795e-21 0.0079496372
-1.8190827e+25 2.2902822e-41 -1.7189414e+24 -159.2525
7.9895122e+18 2.2907026e-41 -1.4681735e+18 8.001514e+33
2.7506167e-14 2.2909829e-41 -5.649219e+37 -2.5266571e+18
9.0034637e-16 2.2895816e-41 6.2200105e-26 1.121085e-16
-1.3838064e-12 2.2893013e-41 1.018177e+34 -1.7545147e+12
2.1350703e-10 2.290002e-41 3.0437128e+20 -122.12624
-2.5720508e-23 2.2904223e-41 -4.2154755e-30 24096.342
1.7992195e+18 2.2912631e-41 -1.133368e+24 -9.9191636e+28
-5.4632945e+13 2.2915434e-41 -0.23828125 5.4419706e-39
-1.8026338e+33 2.2907026e-41 -5.062617e-14 -6.1994572e+27
-6.8286699e+24 2.2887408e-41 -2.6562953e-18 -1.5418287e+32
-460294.88 2.2895816e-41 -7.6000586e+21 -9.3790981e+17
4.1958201e-29 2.2908427e-41 1.4298207e+29 89001040
-1.3024152e-08 2.2888809e-41 1.6171649e-28 -9.9158909e-34
4.4166013e-09 2.2887408e-41 -7.8604658e-19 -2.3546637e+36
2.7987542e+20 2.2918236e-41 8.2701445e-07 -9.0786142
8.590764e+17 2.2908427e-41 7.5385932e-20 3.9790238e+13
-1.0156463e-33 2.2891612e-41 -3.1846454e-23 -6.3824378e+16
2.4454806e+11 2.2919638e-41 3.8337389e-16 1.213583e+14
-2.0477409e-35 2.2919638e-41 1072 3.8987502e-16
-6.6611523e-18 2.2909829e-41 3.6873222e+16 -1.4795609e+31
-1.9355717 2.2912631e-41 8 -1.900417e-22
1.6014079e-27 2.2915434e-41 -2.4178516e+25 -1.8565001e+23
-2.1887999e-35 2.2905625e-41 0.011779785 -2.2002665e-07
1.3880299e-21 2.2909829e-41 4.8032689e-12 5.0194848e+27
-1.104498e+28 2.2921039e-41 4.8849813e-15 6.7725615e-23
-3.3656214e-32 2.2921039e-41 nan -0.017791782
-3.0913196e-15 2.2918236e-41 -1.1296488e-27 9.4274306e-32
-464390.31 2.2916835e-41 139264 4.1051741e+08
-42432.797 2.2918236e-41 5536 1.3245628e+13
6.277532e+33 2.2914032e-41 2.435608e-29 1.4188628e-33
2.3626868e-28 2.2908427e-41 5.6938008e-39 -7.1103761e+28
-9.9000907e-38 2.2905625e-41 8.9711705e+18 -1.864845e-27
-3.1204039e+38 2.2907026e-41 0.0001449585 -1.488151e-17
601100.62 2.2897217e-41 -8.5899346e+09 376321.72
-1.2990238e+17 2.2921039e-41 -8.4042549e-06 9.713943e-33
-3.3463612e-32 2.2921039e-41 -2.3930884e-26 -4.441651e-20
4.5507247e+30 2.2918236e-41 4.1693315e-38 -3.4938316e+16
1.1860837e+20 2.2921039e-41 -2.2480991e+30 7.507512e+26
1.261321e+21 2.2919638e-41 -6160384 1.0657284e+36
-2.4801416e-17 2.2921039e-41 7.666928e+19 -4.5537201e-16
9.9639358e-17 2.2887408e-41 2.261822e-25 -1.1643837e+36
-5.1117879e-24 2.2891612e-41 -1.3060212e-33 -1.41523e-27
1.6221584e+24 2.2891612e-41 -7.1470057e-35 3.7983847e-37
-8.9866291e-21 2.2895816e-41 -8.5613193e-23 -4.7002993e+22
-1.5790719e+23 2.2894414e-41 1.6008923e-19 1.9351956e-29
-2.1779474e+16 2.2919638e-41 3.5735028e-36 -7.2388162e-13
963.00403 2.2914032e-41 -1.2149975e+36 1.5907587e-18
-3.7436883e-13 2.2912631e-41 1.1746887e+23 1.9260276e-30
-6.9703192e-38 2.2916835e-41 8.9535713e-29 2.605629e-15
1.061345e+24 2.2907026e-41 1.5352271e-09 4.0931145e+34
-6.7856441e-12 2.2887408e-41 -75 3.4748643e-35
-1.5170237e-24 2.2918236e-41 1.0156584e-29 1.4277952e-13
6.1007296e-36 2.2915434e-41 -3.9443045e-28 -4.3703971e+26
-2.1583244e-07 2.2909829e-41 1.6932479e+14 -1.2373873e-17
-0.13061346 2.2887408e-41 -1.1681475e-37 -4.1202878e-36
-7.3196075e+24 2.2887408e-41 -6.1897002e+27 -1.3260989e-09
3.8261984e+19 2.2887408e-41 5.3326314e+13 -2.7791367e-15
7.2687312e+18 2.2914032e-41 -1.546875 -1.0068657e-23
3.1091733e-30 2.2888809e-41 2.226511e+13 3027045
-2.7109754e+26 2.2888809e-41 -1.6603858e-37 1.0015654e-17
7.0890377e+27 2.2895816e-41 6.0185311e-34 -1.4252091e-30
-4.0001037e+28 2.2901421e-41 2.6056189e-23 -2.8460723e+35
6.4724558e-26 2.2904223e-41 3.2116532e-12 -4.6613329e-07
-0.54004097 2.2904223e-41 6.3103955e-20 0.013504409
3.6636346e+12 2.2904223e-41 -3.3124567e+26 -3.1290035
-1.3119008e-16 2.2904223e-41 -5.7742e-07 -0.00023866293
-9.5146987e-14 2.2904223e-41 0.030883789 4.0408644e-22
-2.6506016e+26 2.2919638e-41 -0.009765625 1.7253331e-13
20742496 2.2919638e-41 -8.0108643e-05 3.5451051e-33
-1.2802433e+35 2.2918236e-41 4.9517602e+29 -5.330588e+32
9.7675199e+29 2.2887408e-41 -1.1816155e-08 -9.4209096e+29
6.6366069e+19 2.290002e-41 -8.1712415e-14 -4.8212888e+27
-2.5023184e+38 2.290002e-41 1.0924595e-13 7.3580375e-10
-0.0056840079 2.2914032e-41 1.7208457e-15 -2.3202966e+20
-4.1046747e-26 2.2898618e-41 -7.1806484e+09 -0.010940779
-5.8565349e-21 2.2901421e-41 3.1432137e-09 -5.7012742e+20
-1.930794e-36 2.2893013e-41 7.9545075e+31 -317959.06
5.3800829e-21 2.2897217e-41 -2981888 2964.0593
-2.471521e-36 2.2905625e-41 -4.1779913e-12 4.4358051e-33
2.4762954e-12 2.291123e-41 -3.3930242e+11 3.7275517e-23
8.719609e+25 2.2894414e-41 7.5660474e+17 7.1485768e-37
-2.9621393e-31 2.2898618e-41 -6.2172489e-14 -3.3385482e-21
1.083523e+26 2.2904223e-41 3.1532809e+31 0.039612714
-1.3746208e-28 2.2909829e-41 1.9553549e+21 -1.6052857e-23
6.7035743e-21 2.291123e-41 9.5294587e+09 -1.2370968e+36
-1.1475992e-36 2.2916835e-41 7.301912e+26 1.9049411e+14
5.803603e-21 2.2901421e-41 -1.7192511e+31 1.0003271e-13
1.204416e+26 2.2909829e-41 -7.968886e-18 -8.605213e-38
4.7940087e+15 2.2918236e-41 3.2737728e-29 -1.5069051e-06
-4.1944105e+10 2.2904223e-41 -1.3407982e-38 -1.507845e+30
-4.5970641e+10 2.2908427e-41 -8.878049e+24 -8.9372277e+23
-279048.22 2.2901421e-41 9.0205621e-16 -2.3058986e-34
7.5887712e+29 2.2904223e-41 1.3281477e-18 4.474324e-37
-2.4047624e-09 2.2907026e-41 -2.225861e-07 -3.8170185e-20
-1.4643359e+26 2.2921039e-41 1.0293323e+33 -4.9620073e-28
-4.6654089e-21 2.2888809e-41 5.3551048e-08 713.00958
-5.3006848e-21 2.2895816e-41 3.3212446e+32 0.053040177
5.9094902e-21 2.2902822e-41 2.5410988e-20 1.8685397e+33
-5.6977336e-21 2.290002e-41 -130048 -1.3591713e+23
-1.3351808e-28 2.2908427e-41 4.6020432e-10 4.9403738e+20
6.8284376e-12 2.2915434e-41 -2.2411346e-05 7.7417651e+11
2.882216e-13 2.290002e-41 -3.7865323e-29 -2.2436042e+21
1.9298313e+18 2.290002e-41 32000 72.626137
5.9094922e-21 2.2902822e-41 1.7416264e+15 4.262511e+08
-2.0919608e+18 2.2904223e-41 -6.8797933e+34 -1.194655e+34
6.7035852e-21 2.291123e-41 40632320 -2.4564189e-14
-6.0816961e-07 2.2914032e-41 5.1883205e+12 4.6296465e-26
-3.1172663e+10 2.289021e-41 4.7518813e+22 -2.6374229e+17
1.3128187e-05 2.2894414e-41 2.79007e+20 -6.7446844e+20
-4.5970756e+10 2.2908427e-41 -5.6024874e-10 -299524.19
2.624343e-36 2.2909829e-41 1.3224131e+34 6.9717738e-31
-6.7742503e-16 2.2891612e-41 0.024902344 -1.8266961e-35
-1.930802e-36 2.2893013e-41 1.4745401e-34 3739619.2
-5.0359939e-21 2.2893013e-41 2.239178e+34 -2.78873e-30
1.0725021e-08 2.2893013e-41 1.713309e+30 9.5834008e+33
8.115183e+25 2.2891612e-41 8.9750653e+27 -1.3382459e+08
5.2212816e-21 2.2895816e-41 -2.5753792e+36 2.091219e-23
1.8938039e+18 2.2898618e-41 9.9949888e-20 3.2797917e-11
-2.1188817e-36 2.2897217e-41 -5.5972339e-34 2.127996e+23
-1.0590814e-28 2.2898618e-41 2.0563602e-06 6.46524e-21
-1.1379675e-28 2.2901421e-41 7.0681937e-26 5.0715732e-23
4.1138962e+10 2.2904223e-41 3.1141929e+27 -7.3398978e-17
-4.0602087e+10 2.2902822e-41 -0.54296875 2.4474907e-06
1.1137506e+26 2.2905625e-41 -1.1058862e-17 5.2992185e-20
2.330471e-36 2.2902822e-41 0.52734375 -992258.19
6.0139189e+33 2.2909829e-41 1.9683247e+29 1.776793e-21
-2.4185155e+18 2.2912631e-41 2.9335765e-30 -5.663723e+26
4.248114e+10 2.2905625e-41 -8.7189689e+18 7.7975966e+26
-1.3434467e+26 2.2915434e-41 -65 -4.1247715e+37
-5.1071074e+10 2.2914032e-41 4.6322114e-21 -0.13891612
-7.1497376e+33 2.2916835e-41 -1.1768364e-14 -1.4172586e+17
-2.3087802e+20 2.290002e-41 -1.2197274e-18 -1.3752884e-38
5.2391264e+36 2.2897217e-41 -1.1434921e+14 5.9609624e-32
1.1668985e-17 2.2887408e-41 5.6273266e-34 -9.4024607e-19
5.7999758e-13 2.2908427e-41 0.14941406 2.3260852e-10
5.2799329e+29 2.2904223e-41 -7.0031092e-11 5.0650407e-25
-2.4380234e+34 2.2886007e-41 -5.6693568e+11 -1.9443661e+22
-5.0807e+30 2.2888809e-41 5.6333451e-33 2.3483004e+28
3.441483 2.2888809e-41 -3.8066656e+28 -6.701819e-18
1.8423297e-08 2.2909829e-41 2.0679515e-23 -2.2637562e+26
-2.6254189e+35 2.2909829e-41 6.9152299e-22 -4.3863133e+11
-3.2608065e+13 2.291123e-41 2.0068169e+26 141.75534
1.3107613e+09 2.2888809e-41 -4.1470991e+28 5.5472711e-08
-2.6755181e-35 2.291123e-41 -2.3314684e-14 2.9168347e+16
4.6499616e-26 2.2914032e-41 4.3787165e-37 -77.626808
6.0305185e-36 2.2915434e-41 -4.1359031e-25 3.1486925e-13
-7.4031355e-05 2.2905625e-41 13041664 -6.4477354e+15
1.9383172e-30 2.2907026e-41 5.1259995e-05 1019.0208
-1.6804623e+17 2.2886007e-41 1.4115358e-09 2.0487288e-32
-7.2101641e-17 2.2895816e-41 -7.8858009e+34 88999000
-6.7428262e-35 2.2895816e-41 1.1660904e-35 5.304333e-09
2.3857698e+33 2.2901421e-41 -4.2221247e+15 1.0176654e-27
2.5780727e+29 2.2902822e-41 -6.7927886e-12 -2.9770472e+26
2.75416e+25 2.2904223e-41 1.580247e-11 -2.3954253e-32
-1.319271e+26 2.2887408e-41 -1.1832914e-28 5.5690619e-13
9.2032559e+25 2.2887408e-41 -1.3823814e-35 1.5933568e+21
8.3355226e-16 2.2897217e-41 -9.0003193e+31 -3.4100603e+09
-4.0036887e-21 2.290002e-41 -1.4915713e-09 -7.3128316e-28
7.6141876e+16 2.2915434e-41 -0.0014266968 -3.4785396e-07
-5.5237265e-31 2.2914032e-41 -3.1297537e-37 -8.8140634e+35
3.327311e+37 2.2921039e-41 1.6542323e-14 -579.01038
1.9109632e-17 2.2919638e-41 3.2817846e-31 2.1698066e+21
-6.04665e+10 2.2904223e-41 -3.1691265e+32 -2.549439e-11
-5.3685759e-22 2.2904223e-41 -1.1033631e+35 3.3905496e+22
-3.0018291e-24 2.2921039e-41 -1.5099291e-30 -8.0528276e-33
1.2756146e-10 2.2908427e-41 3.2642003e+31 -7.3578427e-10
-1.6798633e+09 2.2908427e-41 -9.9890867e+32 -3.4098446e-17
-2.675525e-35 2.291123e-41 33.75 -6.7578573
1.7397188e-23 2.2909829e-41 0.00044822693 8.8580019e-17
2.6264086e-06 2.291123e-41 1.1449175e-15 -14.828438
1.8772587e-08 2.289021e-41 4.8928267e+13 1.5449101e-25
2.0620265e+28 2.2909829e-41 -2.0372681e-09 -6.6869751e+21
-4.4904997e+15 2.2912631e-41 99.5 -3.5560683e-30
4.6701644e-26 2.2914032e-41 7.0095062e-05 2.3250116e+28
-4.7826147e+27 2.2912631e-41 -1152 2.4584834e-11
4.6297757e-26 2.2914032e-41 nan 30240.076
6.1092366e+34 2.2914032e-41 5.5101298e-38 8.2995067e+37
-1.8438363e-25 2.289021e-41 -4.652298e+36 -1.1954158e+33
-4.7245963e+27 2.2894414e-41 1.1359597e-27 493.50833
-378.5119 2.2897217e-41 1.5751289e-15 -7.1337898e+15
5.1726431e+22 2.291123e-41 4.5830006e-13 -7128.1411
2.8678441e-17 2.2908427e-41 8.4334665e+27 2.7695557e-31
173318.12 2.2909829e-41 -2.348423e-05 3.0697437e+37
1.3107702e+09 2.2888809e-41 -1.1811367e-34 1.1601252e-16
-9.112377e+08 2.2887408e-41 5.5067062e-13 -20546002
-3.7361421e-25 2.2891612e-41 2.9468309e-24 -3.426679e-29
1.3026157e-25 2.289021e-41 -9.4890594e-05 -4.43319e-06
-1.6825251e-21 2.2888809e-41 4.7861769e-26 -1.4591677e+22
1.0807515e+30 2.2905625e-41 2.7301181e+22 58655340
-1.6616057e-17 2.2887408e-41 -4.4446061e+36 5.0930243e+15
-1.387378e-12 2.289021e-41 -1.319414e+13 -5.9081326e-08
0.00017953498 2.2888809e-41 -5.7140634e+23 -1.3149376e+09
-8.359918e-06 2.2901421e-41 5.7646075e+18 -15088.174
-1.9853878e+21 2.2904223e-41 -9.3675068e-16 5.2152044e-24
-3.4094133e-19 2.2918236e-41 -3.4001039e+24 -1197.9991
4.6275823e+37 2.2901421e-41 2.9508862e+38 -9.668091e+36
-1.0926688e+09 2.2907026e-41 -7040 1.2673453e+29
-5.2901974e+08 2.2905625e-41 3.0639016e+28 0.269045
738329.88 2.2912631e-41 3.9107097e+21 -1.7176197e+37
2.5125393e+22 2.2909829e-41 2.0106951e+21 1.3934131e+34
7.3736773e+28 2.2919638e-41 16646144 -3.9111364e+28
1.8913677e+24 2.2918236e-41 1.1683926e-23 -1.1012027e-05
-1.2585706e+24 2.2916835e-41 -1.9571307e+14 -0.0036278004
6.7829016e-36 2.2921039e-41 15.625 1.7322663e-34
9.1060565e+16 2.2933651e-41 0.00019931793 -5.0080547
-0.00088789378 2.2936453e-41 9.2506409e-05 965.03107
164.75603 2.2937855e-41 1.3660862e+26 4.5798431e-14
1.5068517e+28 2.2939256e-41 2.1418225e+35 -3.0409442e+13
2.5649498e+28 2.2940657e-41 1.877489e-28 3.2075918e-06
-1.7063257e-33 2.294346e-41 -9.444733e+22 -4.6940934e+37
1.6716944e-09 2.2933651e-41 5.9662852e-10 -5.4795117e-32
-8.3316032e-37 2.295467e-41 -6.2276208e+22 -8.752865e+27
1.7682225e-19 2.2956071e-41 -4.9217246e-23 8.3993568e+08
-0.036072966 2.2956071e-41 -54016 -4.7545169e-07
-7.183353e-14 2.2942058e-41 116 7.656044e+11
-1.650511e+24 2.2936453e-41 -1.8801214e+28 9.098024e-26
831.01855 2.2937855e-41 8.6036833e+28 3.4813947e+18
-1.1475935e+30 2.294346e-41 9.9529552e+17 -9.9644946e+17
5.6609258e+12 2.294346e-41 3.5778672e-17 -1.2906197e+12
2.60831e+26 2.294346e-41 -1.6169383e+25 1.0939951e-16
-9.6280181e-16 2.2957473e-41 2.1156202e+24 3.4390565e-16
5.9818631e+31 2.2937855e-41 -4.8439697e-21 1.0767552e-38
-5.7916097e+10 2.2930848e-41 9.1676491e+33 2.1350253e-39
-6.8531219e+21 2.2926644e-41 -3.907985e-13 5.9921246e-39
-7.8976768e+32 2.292244e-41 2.1979213e-07 -1.0284521e+38
-3.8581148e-14 2.295467e-41 -3.023657e+13 -7.2343055e-06
-2.8742702e+26 2.2956071e-41 -248 1.2255181e+26
-1.09688e-09 2.2953269e-41 3.1897798e-08 2.6557431e-37
-1.110282e+21 2.2949065e-41 6.606857e-20 -1.2661038e-11
-2.4258101e-28 2.294346e-41 7.040784e+27 7.5657225e-40
1.3159485e+35 2.2939256e-41 7.7235416e+34 -4.8916708e-15
2.6951099e-14 2.2933651e-41 5.1921234e-08 -14106141
2.1894836e-23 2.2926644e-41 -3.8730957e+18 -1.7690203e-28
9.1746964e-11 2.2923842e-41 -7.806517e-24 -1.7219773e+34
7790714 2.2926644e-41 3.2971921e-31 -1.0737434e+13
1.2375178e-38 2.2930848e-41 -1.0497732e+30 -1.0309492e-25
0.00027800314 2.2932249e-41 -0.84765625 5.5024645e-15
8.5175623e-24 2.2956071e-41 1.4858249e-35 2.4436461e-19
1.3675376e+14 2.2957473e-41 9.1858965e-11 8.2711581e-14
-2.0576424e-22 2.292244e-41 952 -1.7493853e-26
3.0809505e-14 2.2930848e-41 1.5286122e+38 -5.1247554e+20
-1.0062936e+17 2.2929447e-41 -6.1658525e+33 1.7333445e-38
6.2479299e+10 2.2944861e-41 3.8536578e+32 -0.28758726
1.7672801e-16 2.2946262e-41 -5.1427878e-37 3.5805923e-30
-5.9547139e+22 2.2947664e-41 -1.6018748e-07 2.3648815e+11
-112513.84 2.2951868e-41 1.237227e+33 -4874059.5
-3.4671126e+32 2.2940657e-41 6.5019395e-31 -8.0918971e+16
-1.2480683e-20 2.2936453e-41 33030144 5.3178537e+30
3.0873292e+23 2.2940657e-41 7.9580786e-12 1.5507141e-12
7.0761094e+11 2.294346e-41 -2.9156299e-27 3.4352987e+29
-9.3544457e-25 2.292244e-41 -2.8174985e+12 4.3232996e+15
-8.5930224e-26 2.2923842e-41 -5.6385099e+33 1.939145e+23
-1.715863e+12 2.2930848e-41 0.0059814453 -7.5407085e-13
3.5325172e-09 2.2936453e-41 -3.099053e+21 1.0835106e+26
-30.21909 2.292244e-41 -5.4016709e-08 1.7716037e-16
-3.4358843e+34 2.2929447e-41 -8.388608e+08 -1.0917775e+32
0.008529827 2.2936453e-41 -6.5085715e-12 3.9168237e-38
-1.2151004e-08 2.2935052e-41 nan 4.0475241e+27
-6.6040118e+22 2.2928045e-41 -1.7763568e-12 -2.7223094e-13
5.1397958e-08 2.294346e-41 -2.5028542e+23 -10.390763
nan 2.2923842e-41 2.7389018e-36 2.9482475e-35
-3.9279264e-11 2.2950466e-41 2.8460307e-18 -1087534.8
2.781527e+28 2.2949065e-41 -55.75 -2.6354699e+13
-1.3389329e-25 2.2946262e-41 -0.0021362305 -0.0012569859
3.5587824e-39 2.2944861e-41 1.5049565e+13 -6.4714496e-18
3.4632845e+36 2.2957473e-41 2.9984903e-12 -971.01733
1.0191588e-35 2.2956071e-41 -1.1408702e-07 -8.1346365e-25
2.2214104e+26 2.2940657e-41 7.5087883e-09 3.1925285e+34
3.7605167e+18 2.2933651e-41 -6.4798424e+26 -1.4270951e-35
-2.8744039e+32 2.2935052e-41 -7.8092145e+37 2.9463919e+30
-4.4374998e-36 2.2935052e-41 -1.2315932e+25 1.482511e-09
-509440.56 2.2932249e-41 2.0769187e+34 3.3527833e+21
56033304 2.2929447e-41 -2.4233807e-25 -8.2639477e-36
-2.5123349e-05 2.2926644e-41 -2.188678e+30 2.6157754e-09
-9.5158728e-21 2.2925243e-41 -1.0303725e-32 -8.9883841e-17
6.431703e+11 2.2933651e-41 8.3225e-36 9.1915572e+12
-3.8497279e-36 2.2928045e-41 2.62144e+08 1.3563907e+16
8.0622392e+33 2.2923842e-41 7471104 -5.3497922e+22
4.1286207e-15 2.2930848e-41 -7.0780516e-07 3.6795852e+18
-5.6723552e+21 2.2930848e-41 1.1191048e-13 4.5309576e+30
2.3301911e+26 2.294346e-41 -2.7995384e-12 -2.3734844e+18
2.9750018e+31 2.2939256e-41 6.8908772e+25 -6.9798392e+24
-2.0944125e-28 2.2933651e-41 -1.3568408e-27 1.9715113e-19
-2.7291334e+26 2.2951868e-41 3.4987157e+32 -6.4217056e-13
4.9268918e+18 2.2949065e-41 2.9027107e+14 4.6888889e-29
-9.3817561e+10 2.2944861e-41 -6.1118044e-09 2.6768909e+17
-1.1613917e+38 2.2935052e-41 6.7884799e-37 -1.8027725
2.1488138e+26 2.2939256e-41 -5.486063e-17 -2.9679598e+18
-2.112542e+26 2.2937855e-41 3.2545544e+15 -1.5806018e+14
4.9780912e-36 2.2942058e-41 860160 -1.3174285e-27
-1.2215433e-20 2.2939256e-41 -4.2781901e+08 0.00039244641
