# .PCD v0.7 - Point Cloud Data file format
VERSION 0.7
FIELDS x y z
SIZE 4 4 4
TYPE F F F
COUNT 1 1 1
WIDTH 1631
HEIGHT 1
VIEWPOINT 0 0 0 1 0 0 0
POINTS 1631
DATA ascii
5.8874092 4.3190284 -0.49289218
5.9331884 4.2968588 -0.4946332
5.9659338 4.2650118 -0.49521351
6.0221462 4.2495966 -0.49789757
6.0939445 4.2444787 -0.50195992
6.1617956 4.2358146 -0.50565958
6.3238688 4.2902932 -0.51762897
6.3741117 4.2674966 -0.51973271
6.4076672 4.233252 -0.52038556
6.9950528 4.5597653 -0.56913376
6.990181 4.4957232 -0.56630462
7.027741 4.4591584 -0.56717509
7.440515 4.6571927 -0.60025424
7.1812334 4.4338703 -0.57566249
7.358242 4.4810004 -0.58842987
7.4651217 4.4835114 -0.59517628
7.675293 4.5458531 -0.61062771
7.6616979 4.4745359 -0.60714573
7.7555671 4.4657521 -0.61273146
7.8921185 4.4801035 -0.62187171
7.9325156 4.4388976 -0.62295985
8.0128803 4.4195161 -0.6273849
6.1513276 3.3440707 -0.47105706
6.3124104 3.381593 -0.48266378
6.0983963 3.2189999 -0.46336761
6.052546 3.1474814 -0.45799953
6.0664182 3.1075573 -0.45756426
6.0782471 3.0666833 -0.45698392
6.1264277 3.0439694 -0.45937783
6.1306543 2.999311 -0.45821714
6.1633205 2.9685595 -0.45937783
6.0390153 2.8632047 -0.44791618
6.0456233 2.8210375 -0.44704568
6.062819 2.7838891 -0.44704568
6.0779686 2.745815 -0.44690061
6.085587 2.7044213 -0.44617519
6.0920129 2.6626382 -0.44537723
6.0926571 2.6185162 -0.44414401
6.1030965 2.5787551 -0.44370875
6.1160412 2.5401115 -0.44349113
6.1342821 2.5036666 -0.44370875
6.1347165 2.4600439 -0.4425481
6.0513229 2.3836298 -0.43485865
6.1551404 2.3809798 -0.44182268
6.1687012 2.3428137 -0.44175014
6.1754837 2.3021338 -0.4411698
6.1829357 2.2618012 -0.440662
6.2023306 2.225841 -0.44109726
6.2168121 2.1880732 -0.4411698
6.2716074 2.1641932 -0.44436163
6.2724853 2.1215189 -0.44341859
6.2683425 2.0773475 -0.44211283
6.5247869 2.1179364 -0.46075609
6.5319562 2.0760498 -0.46032086
6.4988561 2.0217197 -0.45683885
6.4519782 1.9638113 -0.45234126
0 0 -0
0 0 -0
0 0 -0
6.833632 1.8979666 -0.47765836
7.2003698 1.9522436 -0.50442636
0 0 -0
0 0 -0
0 0 -0
9.6050634 2.3523314 -0.68106592
11.025144 2.6283157 -0.78617918
11.048836 2.5624189 -0.7867595
11.084784 2.4991803 -0.78828287
11.094064 2.4298387 -0.78784764
11.111691 2.3623431 -0.78806525
0 0 -0
11.578991 2.313498 -0.82063657
11.563591 2.2367282 -0.81846035
11.2722 2.1087317 -0.79589981
11.241741 2.0317273 -0.79270792
11.453455 1.9974729 -0.80743396
11.424185 1.9202195 -0.80438721
11.253604 1.8206395 -0.79096693
0 0 -0
7.0826368 1.0573318 -0.48266378
6.6397491 0.94968951 -0.4496572
6.4814115 0.88652766 -0.43761525
6.4511251 0.84210163 -0.43500373
6.4235082 0.79844928 -0.43260986
0 0 -0
0 0 -0
0 0 -0
0 0 -0
0 0 -0
0 0 -0
0 0 -0
0 0 -0
0 0 -0
6.3578506 0.39667699 -0.42513803
6.3820724 0.35888582 -0.42673394
6.4040771 0.32071295 -0.42818478
6.4228635 0.28215283 -0.429418
6.450387 0.24371126 -0.4313041
6.4716983 0.20475452 -0.43275493
6.5017471 0.16577233 -0.43485865
6.4657464 0.12516862 -0.43217459
6.4723763 0.085571058 -0.43260986
6.4967155 0.046020322 -0.43435085
6.5118361 0.0061674551 -0.43543899
6.4878149 -0.033659417 -0.43369797
6.4974594 -0.073582262 -0.43442339
6.4948912 -0.1134133 -0.43427831
6.4930758 -0.15323934 -0.43420577
6.4940071 -0.19313693 -0.43435085
6.4747591 -0.23233229 -0.43304509
6.4732118 -0.27205628 -0.43304509
6.4435267 -0.31042045 -0.43101391
6.4454846 -0.35016862 -0.4313041
6.4521742 -0.39025456 -0.43195698
6.4387116 -0.42910519 -0.43115899
6.455852 -0.47005695 -0.43260986
6.4926162 -0.51280987 -0.43551153
6.5777912 -0.56018841 -0.44196776
6.5990605 -0.60281169 -0.44378129
6.6538029 -0.64901572 -0.44806126
6.6893764 -0.69395494 -0.45096296
6.7454658 -0.74164814 -0.45538801
0 -0 -0
9.0167131 -1.1039689 -0.62252462
8.9118395 -1.1466584 -0.61534292
0 -0 -0
8.5672541 -1.2093227 -0.59111392
0 -0 -0
8.1633768 -1.2546096 -0.56253242
7.9733338 -1.2754993 -0.54911214
7.839427 -1.3034389 -0.53982681
7.7536402 -1.3381034 -0.534096
7.5862403 -1.3571725 -0.52234417
7.3865433 -1.3682383 -0.5081985
7.3339305 -1.4050826 -0.50493413
7.2557087 -1.4362929 -0.49978366
7.1685882 -1.464798 -0.49398032
0 -0 -0
0 -0 -0
6.7861328 -1.5172201 -0.46757504
6.7728076 -1.5579354 -0.46728489
6.7233286 -1.5900444 -0.46431068
6.7241058 -1.6338605 -0.46510863
0 -0 -0
6.7373652 -1.7249169 -0.46764758
6.7247252 -1.7657173 -0.4675025
6.7176166 -1.8079838 -0.46779266
6.718895 -1.852617 -0.46873572
6.7381144 -1.9024867 -0.47105706
6.751225 -1.9509991 -0.47294316
6.7534723 -1.9966314 -0.47403127
6.7754612 -2.0484295 -0.47664279
6.7741985 -2.0935004 -0.47751328
6.7783442 -2.1404357 -0.47881904
6.7755237 -2.1853564 -0.479617
6.8017716 -2.2399993 -0.48266378
6.7992435 -2.2855077 -0.48353428
6.8209391 -2.3394866 -0.48629087
6.8271656 -2.3885448 -0.48788679
6.8339858 -2.4381027 -0.48955524
6.8207717 -2.4806714 -0.48970035
6.8690104 -2.5460591 -0.4946332
6.8700528 -2.5945044 -0.49593893
6.8837895 -2.6480734 -0.49826029
6.885983 -2.697541 -0.49971113
6.8665228 -2.7386329 -0.49949348
6.855134 -2.7829654 -0.49992874
0 -0 -0
11.863229 -4.9875998 -0.89782119
0 -0 -0
8.5581026 -3.7218754 -0.64058751
8.421092 -3.7238796 -0.63151979
8.3644285 -3.7603443 -0.62883574
8.0101137 -3.6602459 -0.60235792
7.820168 -3.6315858 -0.5889377
7.6344895 -3.6024384 -0.57580757
7.5600824 -3.6242006 -0.57160014
7.432797 -3.619415 -0.56311274
0 -0 -0
7.2880063 -3.6602044 -0.55498809
7.2272077 -3.6853652 -0.55186874
7.1725755 -3.713129 -0.54925728
0 -0 -0
0 -0 -0
0 -0 -0
0 -0 -0
6.9080758 -3.8493295 -0.53699768
6.8608861 -3.8783884 -0.53503901
6.8274436 -3.9149539 -0.53424108
6.8144999 -3.9632931 -0.53518414
6.7806048 -3.9994562 -0.53438616
6.7781892 -4.0543008 -0.53627223
6.8162837 -4.134099 -0.54164034
0 -0 -0
0 -0 -0
6.8907781 -4.3547974 -0.55469787
0 -0 -0
6.8535471 -4.4498954 -0.55614871
6.8361111 -4.4984446 -0.55701923
0 -0 -0
4.2891655 -2.897902 -0.33830535
4.254024 -2.912329 -0.33678195
4.2188673 -2.9264343 -0.33525857
4.1526961 -2.9184182 -0.3309786
4.0981565 -2.917803 -0.32771423
4.076941 -2.9405594 -0.32742405
3.9839416 -2.9107792 -0.32067767
4.0317321 -2.9838393 -0.32662609
3.9750497 -2.9797962 -0.32314408
3.8335919 -2.910615 -0.31190008
3.7990608 -2.9213107 -0.3103767
3.7551026 -2.9243364 -0.30798283
3.7746699 -2.9769785 -0.31146485
3.7726946 -3.0131588 -0.31298822
3.7339771 -3.0199385 -0.31110212
3.6590614 -2.9966459 -0.30580655
3.63293 -3.0126724 -0.30508113
3.6082673 -3.0297744 -0.30450082
3.5987251 -3.059612 -0.30537131
3.5685484 -3.0718725 -0.30428317
3.4932559 -3.0445471 -0.29884255
3.4550703 -3.0487611 -0.29695645
0 -0 -0
3.3996491 -3.0748687 -0.29521543
3.3696876 -3.0855641 -0.29412732
3.3441105 -3.1000779 -0.29347444
0 -0 -0
3.2877445 -3.123702 -0.29166088
0 -0 -0
3.2298768 -3.1450202 -0.28970227
3.2076781 -3.1619778 -0.28941208
3.18257 -3.1759624 -0.28883174
3.1644256 -3.1968486 -0.28897685
3.1482358 -3.2197716 -0.28933954
3.1339619 -3.2447689 -0.28991988
3.1167464 -3.2668247 -0.29021004
3.1000619 -3.2895174 -0.29057276
3.0811782 -3.3099377 -0.29071784
3.0743079 -3.3434687 -0.29216868
3.0718341 -3.3822088 -0.29412732
0 -0 -0
0 -0 -0
0 -0 -0
0 -0 -0
0 -0 -0
3.0577354 -3.6264508 -0.30682215
3.0698791 -3.6865411 -0.3107394
3.0826654 -3.7484562 -0.31480175
3.1086345 -3.8277018 -0.32046002
3.1156554 -3.8848367 -0.32401457
3.117758 -3.9367261 -0.32706136
3.1402228 -4.0155039 -0.33257452
3.1398995 -4.0662794 -0.33547622
3.1475332 -4.1283064 -0.33939347
3.161119 -4.1993461 -0.3441087
3.1733551 -4.2699046 -0.34875137
3.1730468 -4.3246841 -0.35194322
3.1973336 -4.4143586 -0.35825437
3.20788 -4.486639 -0.36296961
3.2257068 -4.5706229 -0.36870041
3.2414825 -4.6533551 -0.37428614
3.2507141 -4.728231 -0.37914646
3.2580278 -4.8017421 -0.38386166
3.2523565 -4.8572841 -0.38698098
0 -0 -0
0 -0 -0
0 -0 -0
0 -0 -0
0 -0 -0
0 -0 -0
0 -0 -0
0 -0 -0
0 -0 -0
3.5834842 -6.1354318 -0.47860143
3.5567167 -6.176321 -0.48019734
3.5217061 -6.2032328 -0.4806326
3.497211 -6.2490969 -0.48266378
3.4795084 -6.3079944 -0.48578307
3.5088334 -6.4545426 -0.49615657
3.4715171 -6.4803472 -0.49651927
0 -0 -0
0 -0 -0
0 -0 -0
0 -0 -0
0 -0 -0
0 -0 -0
4.2759356 -8.8790512 -0.67859948
4.2068529 -8.8744774 -0.6761331
4.1253414 -8.8422737 -0.67149037
4.0635204 -8.8511028 -0.67018461
3.990665 -8.8349648 -0.66692024
3.9339502 -8.853816 -0.66648501
0 -0 -0
3.802567 -8.8491898 -0.66235012
3.7485857 -8.8732748 -0.66242266
0 -0 -0
3.6156828 -8.8604269 -0.65785253
3.5315661 -8.808383 -0.65204918
0 -0 -0
3.4016294 -8.7952414 -0.64769661
3.3160999 -8.7329588 -0.64124042
3.2652385 -8.7606192 -0.64182073
3.2079985 -8.771122 -0.64109534
3.1514258 -8.7831297 -0.64051497
3.1007836 -8.8117104 -0.64124042
3.0404797 -8.8126554 -0.63986212
2.9914587 -8.8462639 -0.6410228
2.9283431 -8.8379421 -0.63899159
2.86852 -8.8386669 -0.63768584
2.8136292 -8.8542004 -0.63754076
2.7500696 -8.841773 -0.63529199
2.6922829 -8.8470306 -0.63442147
2.6319761 -8.8433084 -0.63289809
2.5701456 -8.8334332 -0.63093948
2.5142608 -8.8432808 -0.63050419
0 -0 -0
2.3872933 -8.8060827 -0.62542629
2.3362741 -8.8321362 -0.62629676
2.2695878 -8.7980156 -0.6226697
2.1975751 -8.7401962 -0.61730158
2.1552866 -8.8000164 -0.62078357
2.0910788 -8.7703867 -0.61759174
2.0363245 -8.7791653 -0.61730158
1.9843913 -8.800252 -0.61795443
1.9280107 -8.8015442 -0.61715651
1.876042 -8.8229647 -0.61788189
1.8210648 -8.8304024 -0.61759174
1.766067 -8.8374977 -0.61730158
1.7084005 -8.8305416 -0.61599582
1.6442878 -8.7879171 -0.61207855
0 -0 -0
1.512349 -8.6698761 -0.60192269
1.4576364 -8.6701403 -0.60126984
1.4002715 -8.6533213 -0.59938371
1.3391868 -8.6105022 -0.59561151
1.2854462 -8.6126385 -0.59517628
1.2246786 -8.565073 -0.59111392
1.1506428 -8.4153032 -0.57957977
1.110844 -8.5131931 -0.58625364
1.0619032 -8.5465727 -0.58821225
1.0095593 -8.5539188 -0.58828479
0.96137041 -8.598609 -0.59111392
0.90848768 -8.6033545 -0.59104139
0.85489339 -8.6008263 -0.59046108
0.79480374 -8.5274572 -0.58473027
0 -0 -0
0.69298643 -8.5723572 -0.58734179
0.64304233 -8.6122541 -0.58995324
0.58794224 -8.5832014 -0.5875594
0.53464669 -8.5766926 -0.58683395
0.48178789 -8.5758286 -0.5865438
0.42876109 -8.5706539 -0.58596349
0.37572885 -8.5631599 -0.58523804
0.32490188 -8.6111507 -0.58857495
0.2729674 -8.6418915 -0.59067869
0.22023922 -8.6553679 -0.59154922
0 -0 -0
0.11460499 -8.7032938 -0.59488612
0.061317038 -8.720788 -0.59611934
0.0078194523 -8.7389526 -0.5974251
-0.045812659 -8.7408304 -0.59757018
-0.099306531 -8.7284174 -0.59669966
-0.15247361 -8.7057056 -0.59510374
-0.20462988 -8.6517601 -0.591259
-0.25669718 -8.6164465 -0.58879262
-0.30218783 -8.4103823 -0.5739215
-0.3318184 -7.8882089 -0.53605461
-0.36932021 -7.6608834 -0.51966017
-0.40572888 -7.4642754 -0.5055145
-0.4442707 -7.3421812 -0.49680945
-0.48492226 -7.2736378 -0.49202168
-0.52721906 -7.2386942 -0.48970035
-0.56493247 -7.1508117 -0.48353428
-0.60073912 -7.0528045 -0.47664279
-0.6275447 -6.8692141 -0.46351269
-0.66036737 -6.7699413 -0.45654869
-0.69467676 -6.6963205 -0.45147073
-0.71402138 -6.4946494 -0.4370349
-0.73391539 -6.318758 -0.42448515
-0.75349885 -6.1577229 -0.41302353
-0.78107369 -6.0738482 -0.40722016
-0.79696852 -5.910799 -0.39561346
-0.81466067 -5.7744527 -0.38596538
-0.8419224 -5.7140918 -0.38190305
-0.87787759 -5.7147326 -0.38233829
-0.91939205 -5.7496161 -0.3853125
-0.94515628 -5.6868043 -0.38110507
-0.97884357 -5.6740184 -0.38059729
-1.0008062 -5.5962377 -0.37530172
-1.0902197 -5.8871288 -0.39728191
-1.0318365 -5.3876319 -0.36079335
-1.1139191 -5.6287203 -0.37914646
-1.1434391 -5.5973511 -0.3773329
-1.1687052 -5.5472903 -0.37414107
-1.2006025 -5.5302687 -0.37341562
-1.2186135 -5.4517474 -0.36812007
-1.2357066 -5.3732162 -0.3628245
-1.2606122 -5.3315635 -0.36028555
-1.4733622 -6.0641356 -0.41570759
-1.5103016 -6.0540133 -0.41563502
-1.5432115 -6.0282078 -0.41440183
-1.5680039 -5.9723239 -0.41091982
-1.6155143 -6.0030379 -0.41396657
-1.3167171 -4.7767987 -0.32220104
-1.3503413 -4.7839861 -0.32336169
-1.3896446 -4.810102 -0.32597321
-1.4233769 -4.8158307 -0.32706136
-1.4439464 -4.7774129 -0.32481253
-1.4269706 -4.6188664 -0.31342345
-1.4075042 -4.4588122 -0.3018893
-1.5000858 -4.6522622 -0.31734073
-1.4271536 -4.3351111 -0.29376459
-1.4960151 -4.4520011 -0.30341268
-1.5093825 -4.4021735 -0.30029339
-1.533729 -4.3852983 -0.29971305
-1.5532311 -4.3551402 -0.29811713
-1.4895428 -4.0971599 -0.2788935
-1.4754653 -3.9822736 -0.27069628
-1.515384 -4.0141964 -0.27388811
-1.5457182 -4.0197158 -0.27504879
-1.5619825 -3.9887981 -0.27338031
-2.2954202 -5.7558479 -0.41251573
-1.5826639 -3.9000263 -0.26793969
-1.5867527 -3.8423119 -0.26416749
-1.5851672 -3.7727442 -0.25945228
-1.6808572 -3.9325886 -0.27287254
-2.5083015 -5.7686963 -0.41933468
-1.8302673 -4.1406031 -0.29108056
-1.8323212 -4.0774474 -0.28694567
-2.0136321 -4.4080968 -0.31429398
-1.88264 -4.0555592 -0.28701821
-1.7980688 -3.8121369 -0.26837492
-1.6812578 -3.5087619 -0.24479881
-1.6970772 -3.4867237 -0.24385576
-1.7131319 -3.4655175 -0.24298526
-1.7540654 -3.4941537 -0.24617711
-1.7768317 -3.4859905 -0.24639472
-1.8449721 -3.5653579 -0.25379401
-2.6683047 -5.0785842 -0.37907392
-1.9050182 -3.573247 -0.25633296
-1.9226334 -3.5535972 -0.25568008
-1.981382 -3.6090405 -0.26126581
-2.0384541 -3.659538 -0.26648885
-2.1777177 -3.8535833 -0.28375381
-2.1839521 -3.8098691 -0.28121486
-2.7715571 -4.7662244 -0.3628245
-2.240171 -3.7991023 -0.28259316
-3.6599734 -6.1191854 -0.48041496
-2.8593354 -4.7152543 -0.36289707
-2.4711969 -4.0197201 -0.30500859
-3.7334595 -5.9890022 -0.47511941
-2.9243248 -4.6281033 -0.35999537
-3.7636225 -5.8755569 -0.46931607
-3.7892814 -5.8364611 -0.46793777
-2.7748551 -4.2177711 -0.32901996
-2.7802036 -4.1699672 -0.32633594
-2.8029447 -4.1486979 -0.32597321
-2.7911482 -4.0771141 -0.32118544
-3.2232797 -4.646574 -0.37312546
-3.1473191 -4.4782228 -0.35992283
-2.5480256 -3.5790834 -0.28135994
-3.1261616 -4.334125 -0.35049239
-3.1803608 -4.3527045 -0.35390186
-2.885906 -3.8994794 -0.31465667
-3.2018182 -4.2710614 -0.35005713
-2.7905529 -3.6755486 -0.29746425
-2.8069713 -3.6504521 -0.29673883
-3.2706969 -4.1996017 -0.34896901
-3.290225 -4.1716247 -0.34824359
-2.7547653 -3.4493504 -0.28288332
-2.7194116 -3.3626049 -0.27635455
-2.7488432 -3.3566558 -0.27737013
-2.757287 -3.3251426 -0.27599183
-2.7936769 -3.3272524 -0.27780539
-2.7894828 -3.2811804 -0.27504879
-2.8056579 -3.2594683 -0.27461353
-2.8446147 -3.2639909 -0.27671725
-2.8553472 -3.2360079 -0.27570167
-2.8778079 -3.2214015 -0.27599183
-2.9075584 -3.2147753 -0.27707997
-2.9225128 -3.1917267 -0.27657217
-2.9223721 -3.1525288 -0.27446845
-2.9307368 -3.1229053 -0.27330777
-2.9560282 -3.1113696 -0.27396065
-2.9605398 -3.0780821 -0.27243727
-2.9800668 -3.0605729 -0.27250981
-3.0134978 -3.0571415 -0.27403319
-3.0526364 -3.0590608 -0.2761369
-3.0685127 -3.037467 -0.27584675
-3.0621259 -2.9941845 -0.27330777
-3.0754173 -2.9704905 -0.2728
-3.1008041 -2.9584467 -0.27352542
-3.0746102 -2.8976519 -0.26910034
-3.1062062 -2.8916397 -0.27047864
-3.1437185 -2.8907471 -0.27243727
-3.119302 -2.8331938 -0.26830238
-3.1158347 -2.7953587 -0.2662712
-3.1471148 -2.7887509 -0.2676495
-3.1656685 -2.7707014 -0.26779458
-3.1750622 -2.7447047 -0.26706916
-3.1637712 -2.7012186 -0.26438513
-3.1902008 -2.6901104 -0.26532817
-0 -0 -0
-0 -0 -0
-0 -0 -0
-0 -0 -0
-0 -0 -0
-0 -0 -0
-0 -0 -0
-0 -0 -0
-0 -0 -0
-3.2674904 -2.4287608 -0.25792888
-3.2831357 -2.4092557 -0.25800145
-3.3237092 -2.4077809 -0.26032278
-3.3230028 -2.3763237 -0.25894448
-3.329371 -2.3501406 -0.25821906
-3.3494582 -2.3336568 -0.25872687
-3.3604262 -2.3108015 -0.25843668
-1.6955795 -1.151512 -0.11088642
-1.7067575 -1.1438601 -0.11124913
-1.7170731 -1.1355646 -0.11153929
-1.724844 -1.1255519 -0.11161184
-1.7308788 -1.114408 -0.11153929
-1.7427375 -1.1069719 -0.11197454
-1.747806 -1.0951997 -0.11182946
-0 -0 -0
-1.7611142 -1.073669 -0.11182946
-1.7727995 -1.065923 -0.11226472
-1.7853141 -1.0585822 -0.1127725
-1.8055569 -1.0556533 -0.11393318
-3.6324122 -2.0924084 -0.26670647
-3.5115983 -1.9942756 -0.25553501
-3.4872108 -1.9522409 -0.25248826
-3.4991238 -1.9308071 -0.25248826
-3.5389481 -1.9245387 -0.25480959
-3.5401392 -1.8971382 -0.25393909
-3.5746484 -1.8874811 -0.25582516
-1.7578349 -0.91518927 -0.10595357
-1.7465497 -0.89574987 -0.10457527
-1.7778387 -0.89803988 -0.10667899
-1.7609836 -0.87602401 -0.10486544
-1.7896211 -0.87659359 -0.10675152
-1.7931689 -0.86473095 -0.10660644
-1.8119603 -0.86011845 -0.10769457
-0 -0 -0
-0 -0 -0
-0 -0 -0
-0 -0 -0
-0 -0 -0
-0 -0 -0
-3.4973836 -1.4783771 -0.23797986
-3.5312603 -1.4672134 -0.2399385
-3.5531254 -1.4507922 -0.24095409
-3.6147301 -1.4501117 -0.24508898
-3.6875947 -1.4531132 -0.25009435
-3.6489978 -1.4121177 -0.24639472
-3.6631885 -1.3918248 -0.24682997
-3.6940901 -1.3776784 -0.24857098
-3.7137148 -1.3590955 -0.24944149
-3.737005 -1.34167 -0.25060216
-3.7301133 -1.3134201 -0.24944149
-3.7729883 -1.3025385 -0.25212553
-3.7516191 -1.2694632 -0.24987674
-3.7082109 -1.2294877 -0.24595948
-3.7403514 -1.2147126 -0.24784556
-3.7049587 -1.1781532 -0.24458118
-3.7778339 -1.1758271 -0.24958657
-3.7496719 -1.1418862 -0.24690253
-3.8187456 -1.137341 -0.25161776
-3.8409755 -1.1183442 -0.25277841
-3.8563998 -1.0972089 -0.25343129
-3.8995788 -1.0836613 -0.25618789
-3.834918 -1.0404128 -0.25081977
-3.8769066 -1.0262942 -0.25350383
-3.8869939 -1.0034826 -0.25379401
-0 -0 -0
-0 -0 -0
-0 -0 -0
-0 -0 -0
-0 -0 -0
-0 -0 -0
-0 -0 -0
-0 -0 -0
-0 -0 -0
-0 -0 -0
-0 -0 -0
-3.6892076 -0.66766584 -0.23449785
-3.7335196 -0.65203762 -0.23747207
-3.8013833 -0.63985544 -0.24218729
-3.8544669 -0.62447703 -0.2458144
-3.8720236 -0.60295844 -0.24682997
-3.9151089 -0.58507186 -0.24973166
-3.9531822 -0.56597388 -0.25227061
-3.9625096 -0.54251671 -0.25270587
-3.983566 -0.52051306 -0.25401163
-0 -0 -0
-0 -0 -0
-0 -0 -0
-0 -0 -0
-0 -0 -0
-0 -0 -0
-0.55834138 -0.049840976 -0.0025813254
-0.55764252 -0.046333909 -0.0025087835
-0.5071913 -0.039131872 0.0011908546
-0.50742185 -0.036019068 0.0011908546
-0 -0 -0
-0.49587601 -0.029120047 0.0020613575
-0.49604538 -0.026076861 0.0020613575
-0 -0 -0
-0.50629467 -0.020362154 0.0013359383
-0.50541317 -0.01722387 0.0014084803
-0.53242958 -0.014803226 -0.00055015163
-0.52054423 -0.011306846 0.00032035145
-0.46774793 -0.0074247485 0.0041650734
-0.46778467 -0.0045545618 0.0041650734
-0.4707959 -0.0016864226 0.0039474475
-0.46182123 0.0011539392 0.0046003247
-0.4209162 0.0035161218 0.0075745438
-0.41789508 0.0060458933 0.0077921697
-0.43380344 0.0089897271 0.0066314987
-0.42177707 0.011293071 0.0075020017
-0 0 -0
-0.42061025 0.016425988 0.0075745438
-0.32643637 0.014455309 -0.00028187534
-0.33129743 0.016728286 -0.00088689104
-0.32821605 0.018580368 -0.00052388158
-0.32512456 0.020395273 -0.00016087219
-0.32202324 0.022172946 0.00020213722
-0.31495425 0.023599885 0.0010491592
-0.3039239 0.024603199 0.0023801937
-0.30376723 0.026467578 0.0023801937
-0.3302736 0.030938191 -0.00088689104
-0.32909021 0.032861505 -0.0007658879
-0.3288824 0.034880146 -0.0007658879
-0.32964817 0.037012208 -0.00088689104
-0.34123817 0.040483557 -0.0023389286
-0.33212271 0.041435182 -0.0012499004
-0.32792732 0.042940818 -0.0007658879
-0.33453789 0.045924406 -0.0016129098
-0 0 -0
-0 0 -0
-0 0 -0
-0 0 -0
-0 0 -0
-0 0 -0
-0 0 -0
-0 0 -0
-0 0 -0
-0 0 -0
-0 0 -0
-0 0 -0
-0 0 -0
-0 0 -0
-0 0 -0
-0 0 -0
-0 0 -0
-0 0 -0
-0 0 -0
-0 0 -0
-0 0 -0
-0 0 -0
-0 0 -0
-0 0 -0
-0 0 -0
-0 0 -0
-0 0 -0
-0 0 -0
-0 0 -0
-0 0 -0
-0 0 -0
-0 0 -0
-0 0 -0
-0 0 -0
-0 0 -0
-0 0 -0
-0 0 -0
-0 0 -0
-0 0 -0
-0 0 -0
-0 0 -0
-0 0 -0
-2.6564951 1.1349605 -0.31259099
-2.6959033 1.1714357 -0.31876212
-2.7213452 1.2024127 -0.32311824
-2.74017 1.2308954 -0.32662734
-2.7307603 1.2468601 -0.32638532
-2.7428637 1.2727934 -0.32904741
-2.7403882 1.2921418 -0.32977343
-0 0 -0
-0 0 -0
-0 0 -0
-0 0 -0
-0 0 -0
-0 0 -0
-0 0 -0
-0 0 -0
-0 0 -0
-2.5394177 1.3937014 -0.313559
-2.5464251 1.4179566 -0.31573707
-2.5644624 1.4487022 -0.31948814
-2.57619 1.4762644 -0.32239223
-2.5748053 1.4965366 -0.32348126
-2.5809627 1.5213875 -0.3256593
-2.589467 1.5478988 -0.32820037
-2.5688879 1.5570645 -0.32662734
-2.5973325 1.5962025 -0.33207247
-2.589174 1.6131599 -0.33231449
-2.575032 1.6263642 -0.33170947
-2.5533035 1.6346356 -0.33001542
-2.5548801 1.6578413 -0.33170947
-2.5289061 1.6631165 -0.3294104
-2.517828 1.6780514 -0.32928941
-2.535445 1.7123705 -0.3334035
-2.5281661 1.7301394 -0.33388752
-2.5223956 1.7490152 -0.33461353
-2.5140524 1.7661723 -0.33497655
-2.5444005 1.8109384 -0.34114772
-2.5203619 1.817222 -0.33921167
-2.4915345 1.8197644 -0.33654958
-2.4970744 1.8474232 -0.33909065
-2.4888682 1.8650926 -0.33957466
-2.4671018 1.8725227 -0.33800164
-2.4618595 1.8924679 -0.33896965
-2.4588144 1.9142493 -0.34030068
-2.4384508 1.9225361 -0.33896965
-2.4553003 1.9603907 -0.34344676
-2.4571149 1.986659 -0.34562483
-2.4333618 1.9922608 -0.34380978
-2.4294949 2.0141265 -0.34514081
-2.429251 2.0392125 -0.34707686
-2.4325707 2.0675867 -0.34961793
-2.417582 2.0805302 -0.34925494
-2.3972893 2.0888009 -0.3480449
-2.3665688 2.0877032 -0.34514081
-2.3352125 2.0856462 -0.34211573
-2.3422432 2.1179194 -0.34538281
-2.3328633 2.1356044 -0.34598783
-2.2884214 2.1208506 -0.3407847
-2.307204 2.1647508 -0.34610885
-2.2960362 2.1809187 -0.34647185
-2.2768893 2.1894591 -0.34550384
-2.3117592 2.2504933 -0.35373205
-2.2964935 2.2632415 -0.35349002
-2.2839682 2.2786927 -0.35373205
-2.279717 2.3025436 -0.35542607
-2.2599959 2.3108087 -0.35445806
-2.2836916 2.3639133 -0.36111322
-2.2807889 2.3900943 -0.3631703
-2.2844565 2.4235544 -0.36643738
-2.2837417 2.4527881 -0.36897844
-2.2847688 2.4842966 -0.3718825
-2.2901647 2.521054 -0.3756336
-2.2958574 2.5587099 -0.37950569
-2.2952504 2.5898411 -0.38228878
-2.3113391 2.640487 -0.38821793
-2.3106682 2.6726472 -0.39112201
-2.3141994 2.7101841 -0.39487311
-2.313518 2.7433095 -0.3978982
-2.3125167 2.7765279 -0.40092325
-2.3080428 2.8060021 -0.40334332
-2.3101749 2.8440034 -0.40709442
-2.3088231 2.8782628 -0.4102405
-2.3484142 2.9647605 -0.4214938
-2.3864174 3.0510676 -0.4326261
-2.3840263 3.0868704 -0.43589318
-2.3620327 3.0974927 -0.43528816
-2.338208 3.1055818 -0.43432012
-2.3025348 3.097558 -0.43093204
-2.3263371 3.1700633 -0.43976527
-2.3126631 3.1923184 -0.44097531
-2.2947633 3.2088714 -0.4413383
-2.3047843 3.2650714 -0.44763047
-2.2898114 3.2864835 -0.4487195
-2.2836573 3.3209245 -0.45174459
-2.2754948 3.3529484 -0.45440665
-2.2802753 3.4047952 -0.4599728
-2.2927098 3.4692502 -0.467354
-2.2876377 3.5082028 -0.47098407
-2.2848575 3.5513973 -0.47521919
-2.2789741 3.5904977 -0.47884929
-2.2748024 3.6330245 -0.48296338
-2.265502 3.6680319 -0.48598847
-2.2543085 3.7005174 -0.48865053
-2.2514873 3.7474709 -0.49336967
-2.2421055 3.7842777 -0.49663675
-2.2198443 3.7996783 -0.49687874
-2.2063923 3.8304336 -0.49929881
-2.2048938 3.8827496 -0.50474393
-2.1994433 3.9291255 -0.50934207
-2.1911099 3.9712334 -0.51333517
-2.2003515 4.0465293 -0.5219264
-2.2157791 4.1352124 -0.53233266
-2.2390006 4.2409153 -0.54503798
-2.2449832 4.3162279 -0.55350822
-2.2546487 4.4006076 -0.56318849
-2.2562106 4.4710841 -0.57093269
-2.2627308 4.5533009 -0.58024991
-2.2582967 4.6152534 -0.58678406
-2.2915077 4.7569232 -0.60408753
-2.25335 4.7520566 -0.60154647
-2.2564561 4.8350644 -0.61086369
-2.233371 4.8632536 -0.61279976
-2.2079821 4.8868175 -0.6141308
-2.1831937 4.9120669 -0.61570382
-2.1542048 4.9280992 -0.61606681
-2.1015949 4.8892365 -0.60916966
-2.1047661 4.9806828 -0.61957592
-2.0368714 4.9036565 -0.60771763
-2.0277405 4.9675331 -0.61449379
-2.0171628 5.0296378 -0.62102795
-1.9557201 4.9643331 -0.61086369
-1.9270123 4.9808688 -0.61146873
-1.9052203 5.0158005 -0.61449379
-1.8827252 5.0497208 -0.6173979
-1.8500011 5.0565162 -0.61679286
-1.7917963 4.9920878 -0.60699159
-1.7683779 5.0235896 -0.60965365
-1.7193979 4.9817939 -0.6028775
-1.7174045 5.0768852 -0.6137678
-1.6918384 5.1042891 -0.61594582
-1.6457853 5.0692515 -0.6101377
-1.6179554 5.0896611 -0.61146873
-1.6179312 5.1999707 -0.62429506
-1.5383331 5.0531006 -0.60432953
-1.5180538 5.0985999 -0.60892767
-1.4831375 5.095427 -0.60735464
-1.4792485 5.2008715 -0.61957592
-1.4311155 5.151504 -0.61219472
-1.4106419 5.2013865 -0.6173979
-1.3759094 5.1993876 -0.61606681
-1.312013 5.0837345 -0.60045743
-1.3030508 5.1802602 -0.61158973
-1.2710048 5.1871939 -0.61146873
-1.2481258 5.232554 -0.61618787
-1.2070301 5.2014332 -0.61134773
-1.1877481 5.2649069 -0.61836588
-1.1545718 5.2682171 -0.61788189
-1.1232564 5.280057 -0.61848688
-1.084226 5.2547665 -0.61449379
-1.0558505 5.2807889 -0.61691386
-1.0253123 5.2969141 -0.61812389
-0.99224454 5.3001785 -0.6177609
-0.96658528 5.344264 -0.62248003
-0.92661721 5.3090219 -0.6173979
-0.90290332 5.3674703 -0.62393206
-0.86963528 5.3709497 -0.62369001
-0.83894944 5.3908978 -0.62550509
-0.814053 5.4509249 -0.63228124
-0.78297746 5.4725227 -0.63433832
-0.7415933 5.4201794 -0.62732011
-0.70780861 5.4206905 -0.62683612
-0.67526799 5.4308419 -0.62756217
-0.64135128 5.4299541 -0.62695712
-0.60923326 5.4446387 -0.62828815
-0.57924902 5.4808517 -0.63228124
-0.54972547 5.5257902 -0.63736337
-0.50891203 5.4549303 -0.62828815
-0.47800863 5.4876184 -0.63191825
-0.44983658 5.5587192 -0.64026749
-0.41896582 5.6049304 -0.64559162
-0.38490513 5.6123476 -0.6461966
-0.3471961 5.5620942 -0.63978344
-0.31589296 5.614666 -0.64595461
-0.2796067 5.5798159 -0.64147753
-0.24761897 5.6329951 -0.64776969
-0.21267816 5.6244893 -0.64655966
-0.17819414 5.6266804 -0.64668065
-0.14416806 5.6475143 -0.64910072
-0.10721292 5.528204 -0.63445932
-0.073523 5.5466242 -0.63663739
-0.03965202 5.5707936 -0.63954145
-0.0055350573 5.6592784 -0.65031075
0.028996963 5.6234708 -0.64595461
0.063947745 5.6618977 -0.65067375
0.098687291 5.6613989 -0.65067375
0.13399012 5.6845036 -0.6535778
0.16975845 5.7133408 -0.65720791
0.20434625 5.6992955 -0.65563488
0.23981526 5.7098355 -0.65708691
0.27340651 5.6785116 -0.65345681
0.31294677 5.76296 -0.66398406
0.34403214 5.6905823 -0.65539289
0.38073018 5.715106 -0.65865993
0.41709146 5.7304826 -0.66083801
0.4503645 5.7040663 -0.65793395
0.48425788 5.6883378 -0.65636086
0.52820176 5.784111 -0.6684612
0.56126839 5.756063 -0.66543615
0.59421599 5.7298017 -0.66265303
0.63425285 5.7704487 -0.66809821
0.66758251 5.7487006 -0.66592014
0.7139551 5.8351417 -0.67705244
0.74479932 5.7922549 -0.6723333
0.78006017 5.7856083 -0.67209131
0.81873989 5.8033195 -0.67487437
0.85824591 5.8247008 -0.67814147
0.87404448 5.6898189 -0.66216904
0.931072 5.8225517 -0.67923045
0.96286958 5.7932286 -0.67632639
1.0081989 5.843945 -0.6833446
1.0517367 5.8806419 -0.68866873
1.0751319 5.8057566 -0.68019849
1.1324221 5.9121375 -0.69423485
1.1594161 5.8583388 -0.68842673
1.208866 5.9172459 -0.69665492
1.252526 5.9446831 -0.70101106
1.2839185 5.9136057 -0.69810694
1.3234311 5.9201469 -0.69992203
1.3483733 5.8625803 -0.69375086
1.3696867 5.7923751 -0.68600667
1.414585 5.8224435 -0.6908468
1.4560558 5.8367682 -0.69375086
1.5068716 5.8863811 -0.70113206
1.5341315 5.8434219 -0.69689691
1.5869962 5.8971596 -0.70488316
1.6123248 5.8480783 -0.69992203
1.6508768 5.8476276 -0.70113206
1.694999 5.8659954 -0.70476216
1.7073048 5.7755275 -0.6945979
1.7662812 5.8428531 -0.70452011
1.8003395 5.8262153 -0.70379412
1.8321664 5.8027544 -0.7022211
1.88664 5.8499727 -0.70972329
1.9116255 5.8052888 -0.70548815
1.966514 5.8508425 -0.71286935
2.002377 5.838666 -0.71286935
2.0466921 5.8506293 -0.71601546
2.0775466 5.8239379 -0.71420038
2.1156187 5.8176103 -0.71504742
2.1471331 5.7933512 -0.71359539
2.2138677 5.8627105 -0.72436464
2.230901 5.7999167 -0.71795148
2.2653599 5.7833462 -0.71758848
2.3294997 5.8412499 -0.7270267
2.3750095 5.8507581 -0.73017281
2.4146564 5.8452492 -0.73138285
2.4570184 5.8458786 -0.73343986
2.5053353 5.8598971 -0.73731196
2.5194631 5.7943516 -0.7306568
2.545331 5.7569962 -0.72775275
2.6168439 5.8218427 -0.73852199
2.6269295 5.7497029 -0.73101979
2.7073286 5.8307028 -0.74408817
2.7345791 5.7960277 -0.74166811
2.7821105 5.8042011 -0.74505621
2.828975 5.8102231 -0.74820226
2.9028697 5.8701601 -0.75872952
2.9473011 5.869091 -0.76102859
2.9679208 5.8208318 -0.7569145
3.0072329 5.8095632 -0.75788254
3.0673039 5.8375697 -0.7642957
3.0871773 5.7888622 -0.76018161
3.12642 5.776794 -0.76114959
3.2024364 5.8314509 -0.77143484
3.2367074 5.8090901 -0.77107185
3.2649608 5.7761598 -0.76925683
3.2958958 5.7482686 -0.76816779
3.3700423 5.7948608 -0.77760601
3.3949418 5.7561202 -0.77506495
3.4592495 5.7837338 -0.78196216
3.515784 5.7971945 -0.78692329
3.5528491 5.778049 -0.78728628
3.6081965 5.788147 -0.79188442
3.6494787 5.7751279 -0.79321545
3.6928794 5.7651629 -0.79503047
3.7081783 5.7115941 -0.79055339
3.7322383 5.6721511 -0.78813332
3.8237119 5.7341981 -0.80059665
3.8577123 5.7089834 -0.8003546
3.9560587 5.7777467 -0.81402797
4.0548258 5.8446984 -0.82758033
4.0660601 5.7847924 -0.8223772
4.1320033 5.8025842 -0.82879037
4.1506834 5.7537785 -0.82528126
4.1999698 5.7474346 -0.82818532
4.2457895 5.7359152 -0.83036339
4.3261709 5.7701077 -0.83955961
4.4197407 5.8201261 -0.85129696
4.4190502 5.7456937 -0.84403676
4.5219464 5.8053842 -0.85746813
4.5900731 5.8188291 -0.86388129
4.6424222 5.8114929 -0.86714834
4.6929798 5.8014174 -0.8700524
4.7303758 5.774816 -0.87041545
4.7074051 5.6754012 -0.85928315
4.7657661 5.674531 -0.86376023
4.7908468 5.633841 -0.86194521
4.8272686 5.606595 -0.8623082
4.8283057 5.5387149 -0.85613704
4.8208094 5.4621053 -0.84851384
4.8085861 5.3813577 -0.84016466
4.81354 5.3208394 -0.83508253
4.8313446 5.2751017 -0.83242047
4.8352685 5.2147918 -0.82733834
4.835917 5.1517386 -0.82177216
4.850338 5.1039829 -0.8187471
4.836822 5.0276365 -0.81088191
4.8336368 4.9630251 -0.80495274
4.8688779 4.93822 -0.80579978
4.8927741 4.9019303 -0.80471075
4.8994718 4.8487787 -0.80071765
4.9099622 4.7998934 -0.79745054
4.9164672 4.7476149 -0.79357845
4.9239531 4.6968083 -0.78994834
4.9375043 4.652215 -0.78740728
4.9288917 4.5873485 -0.78123611
4.944521 4.5456004 -0.7791791
4.9561491 4.5004983 -0.77651697
4.9378467 4.4289188 -0.76901484
4.9589839 4.3932729 -0.7680468
4.9918242 4.3679905 -0.76901484
4.9862318 4.3093753 -0.76381165
4.9906812 4.2600141 -0.7603026
5.0015445 4.2165184 -0.75788254
5.0219817 4.1813049 -0.75703549
5.0222368 4.129612 -0.7530424
5.0343785 4.0880837 -0.75098532
5.0562696 4.0546331 -0.75050133
5.0896149 4.0303087 -0.75183237
5.1338015 4.014286 -0.75485742
5.1960559 4.0118208 -0.7606656
5.2742634 4.0207753 -0.76889378
5.3258042 4.0086279 -0.77300793
5.3877535 4.0036941 -0.77869505
5.4434371 3.9934535 -0.78341419
5.5410085 4.012948 -0.79442549
5.6244836 4.0210052 -0.80325872
5.7398996 4.0505023 -0.81681103
5.929204 4.1297793 -0.8412537
5.9642496 4.1000671 -0.84270573
6.0246215 4.0873513 -0.84790885
6.0825853 4.072392 -0.85274899
6.1372781 4.0546865 -0.85710508
6.0905185 3.970346 -0.84669882
6.0671721 3.9023018 -0.83980167
6.1027374 3.8724444 -0.84149569
6.1196513 3.8307135 -0.84052765
6.1903453 3.8222883 -0.84730381
6.2272482 3.7924917 -0.84923989
6.2521033 3.7552326 -0.84948188
6.2963815 3.7294428 -0.852507
6.3491502 3.7082553 -0.85674208
6.3752251 3.6712086 -0.85722607
6.4356179 3.6535783 -0.86255026
6.4518504 3.6106291 -0.86170322
6.4660597 3.5666597 -0.86061418
6.4886951 3.5273914 -0.86073518
6.5075912 3.4861054 -0.86037219
6.5288591 3.44611 -0.86037219
6.5648541 3.4137676 -0.8624292
6.5945129 3.3779461 -0.86363924
6.6248651 3.3423359 -0.86497027
6.6381359 3.2980914 -0.86400229
6.6618147 3.2590427 -0.86448628
6.6602206 3.2077715 -0.86158222
6.6842632 3.1689701 -0.86218721
6.6999831 3.1262183 -0.86170322
6.688365 3.070972 -0.85758913
6.8147421 3.078486 -0.87198848
6.6529713 2.9564292 -0.84790885
6.7037339 2.9298568 -0.85226494
6.7270575 2.8910189 -0.85299098
6.6806579 2.8226562 -0.84452075
6.7446089 2.8010194 -0.85069191
6.7396092 2.7505844 -0.84778786
6.8024302 2.7276428 -0.85383803
6.8264279 2.6887615 -0.85480601
6.8279834 2.6410975 -0.85286999
6.8357081 2.5959818 -0.85178095
6.85988 2.5571089 -0.85286999
6.8940868 2.521786 -0.85529006
6.9234462 2.4844637 -0.85710508
6.9338779 2.4402888 -0.85650009
6.9355831 2.3931668 -0.85480601
6.9905734 2.3642333 -0.86000919
6.9380436 2.2991381 -0.85141796
6.986012 2.2675502 -0.85577404
6.9960098 2.2234402 -0.85529006
6.947907 2.1613176 -0.84742486
6.9638867 2.1195118 -0.84778786
6.8721013 2.0456097 -0.83447748
6.8854766 2.0036819 -0.83459848
6.8527637 1.9486434 -0.82891136
6.8138967 1.8924894 -0.8224982
6.9374795 1.8810164 -0.83665556
6.9949551 1.8505913 -0.84246373
6.9456215 1.792024 -0.83484054
7.1047459 1.7866268 -0.85347497
7.0895419 1.7366273 -0.85020792
7.1473794 1.7043678 -0.85613704
7.1577029 1.6604801 -0.85613704
7.2500682 1.635078 -0.86642236
7.1532979 1.5672126 -0.85311198
7.2006478 1.5313373 -0.85783112
7.1953249 1.484121 -0.85601604
7.2305784 1.4451915 -0.85928315
7.2305384 1.3991027 -0.85819411
7.243866 1.3556228 -0.85879916
7.2530241 1.3113261 -0.85892016
7.2403979 1.2632186 -0.85637909
7.2636757 1.2213994 -0.85831511
7.2406554 1.1718965 -0.85456401
7.1054816 1.1053482 -0.83701855
0 0 -0
6.7578673 0.96656007 -0.79261041
6.761704 0.92480773 -0.79236841
6.8036714 0.88804775 -0.79684556
6.8030815 0.84555107 -0.79611951
6.8219433 0.80541897 -0.79781353
7.1957164 0.80473906 -0.84306872
7.2360568 0.764319 -0.84742486
7.2850614 0.72431636 -0.85286999
7.2755313 0.67831486 -0.85117596
7.3062577 0.63597959 -0.85444301
7.291223 0.58962047 -0.85214394
7.2699561 0.54302728 -0.84911889
7.304842 0.5005753 -0.85299098
7.3008409 0.455313 -0.85214394
7.2757463 0.40895262 -0.8487559
7.3237238 0.36657614 -0.85432202
7.3228602 0.32150164 -0.85395902
7.3048558 0.2758179 -0.85153896
7.3500662 0.23236312 -0.85686308
7.3582997 0.18743527 -0.85771012
7.3851156 0.14277627 -0.86085618
7.3590531 0.097110577 -0.85758913
7.3396578 0.051817909 -0.85516906
7.2832565 0.0067396681 -0.84827185
7.1094494 -0.037012644 -0.82709628
7.1468067 -0.081069626 -0.83169442
6.9903526 -0.12216704 -0.81269693
0 -0 -0
7.068696 -0.21034701 -0.8224982
7.0881042 -0.25446758 -0.82503927
7.1538496 -0.30080289 -0.83326745
7.105269 -0.34243774 -0.82758033
7.1406989 -0.3880825 -0.83217841
7.1064768 -0.42996538 -0.82830632
7.1264849 -0.47508472 -0.83108944
7.1056156 -0.51750183 -0.82891136
7.0617347 -0.55787843 -0.82395023
7.0759816 -0.60271776 -0.8261283
7.0345864 -0.64268476 -0.82153016
7.0710163 -0.68979526 -0.8264913
7.0607266 -0.73255342 -0.82576525
7.0018315 -0.76988602 -0.8191101
7.0245838 -0.81604648 -0.8224982
7.0253558 -0.85985786 -0.82322419
6.9953346 -0.89977783 -0.82019913
7.0585427 -0.95198381 -0.82866937
6.9788518 -0.98485911 -0.81959414
7.0748072 -1.0427341 -0.83217841
7.0251069 -1.079483 -0.82685429
7.0007086 -1.1197426 -0.82467628
7.0250397 -1.1678922 -0.82854837
7.0148072 -1.2104682 -0.82818532
6.9466667 -1.2426387 -0.82068312
6.9681921 -1.2906684 -0.82431322
6.9250455 -1.3266697 -0.81995714
0 -0 -0
0 -0 -0
0 -0 -0
0 -0 -0
0 -0 -0
0 -0 -0
0 -0 -0
0 -0 -0
0 -0 -0
6.8854713 -1.7628659 -0.82685429
6.8390031 -1.7957468 -0.8223772
6.8221049 -1.8361273 -0.82165116
6.785831 -1.8710873 -0.81850511
6.7914171 -1.9175475 -0.82068312
6.7594981 -1.9533917 -0.81814206
6.7321553 -1.9903246 -0.81620604
6.727417 -2.0338945 -0.81717408
6.712914 -2.0745482 -0.81693202
6.6943793 -2.1139045 -0.81620604
6.6907291 -2.1579895 -0.81741607
6.721673 -2.2136042 -0.82310319
6.7089047 -2.2551224 -0.82322419
6.6921248 -2.2952783 -0.82286119
6.6638618 -2.3313775 -0.82104617
6.6718678 -2.3802316 -0.82395023
6.6151614 -2.4058492 -0.81850511
6.604928 -2.4481196 -0.8191101
6.5600681 -2.4773729 -0.815238
6.4928651 -2.4976106 -0.80846184
6.5134616 -2.5515304 -0.81318092
6.525342 -2.6024852 -0.81681103
6.4862585 -2.6331363 -0.81378597
6.4653931 -2.6709895 -0.81318092
6.4177713 -2.6975265 -0.80906683
6.3846712 -2.7298269 -0.80688876
6.3532372 -2.762615 -0.80495274
6.2944083 -2.7830725 -0.79938662
6.2853608 -2.8253062 -0.8004756
6.2606845 -2.8605177 -0.79950762
6.2628202 -2.9080799 -0.80216968
6.238575 -2.9434867 -0.80132264
6.2266622 -2.9847152 -0.80216968
6.2118006 -3.0246041 -0.80265367
6.1575365 -3.045054 -0.79781353
6.1688943 -3.0979307 -0.80192769
6.1462326 -3.1339197 -0.80144364
6.0775261 -3.1460092 -0.79466748
6.0475645 -3.1776981 -0.79321545
6.0813756 -3.2432499 -0.80059665
6.0054951 -3.2502539 -0.7928524
5.9019198 -3.2411542 -0.78123611
5.9417472 -3.3106561 -0.78958535
5.8988562 -3.334347 -0.78643924
5.8309283 -3.343313 -0.77978408
5.8000088 -3.3730376 -0.77833205
5.748426 -3.3904018 -0.77397591
5.7130337 -3.4169447 -0.77191889
5.6503758 -3.4267044 -0.76598972
5.6579905 -3.4789937 -0.77010381
5.6348524 -3.5125942 -0.76986182
5.5796318 -3.5258853 -0.76502168
5.5604 -3.5616617 -0.76538473
5.5051427 -3.5740845 -0.7605446
5.4466267 -3.583781 -0.75522047
5.3774657 -3.5857334 -0.74832326
5.3825011 -3.6370072 -0.75231636
5.2822838 -3.6166732 -0.74082106
5.2559152 -3.6461868 -0.74021608
5.1944675 -3.6509609 -0.7344079
5.1574154 -3.6723979 -0.73222983
5.0937333 -3.6743484 -0.72605872
4.6463747 -3.3950467 -0.66192704
4.5991302 -3.4039984 -0.65793395
4.5702157 -3.4261978 -0.65672392
4.571239 -3.470989 -0.66011196
4.5474954 -3.4971564 -0.65974897
4.5423946 -3.537806 -0.66229004
0 -0 -0
4.5397377 -3.6261256 -0.6687032
4.536694 -3.6695237 -0.67172831
0 -0 -0
4.664732 -3.8688061 -0.69919598
4.6530662 -3.9075723 -0.70113206
4.6902452 -3.9881475 -0.71093333
4.5979943 -3.9585478 -0.70004302
4.6012998 -4.0108256 -0.70452011
0 -0 -0
4.5332327 -4.0504498 -0.70149505
4.448678 -4.0242367 -0.69169378
4.4495187 -4.0749278 -0.69592893
4.3669376 -4.0488229 -0.68636966
4.3796401 -4.1108766 -0.69266182
4.3543339 -4.1376719 -0.69266182
4.3360157 -4.1711955 -0.69387186
4.3053632 -4.192873 -0.69302481
4.2880359 -4.2275763 -0.6944769
4.2472644 -4.2390785 -0.69193584
4.2058153 -4.2495341 -0.68927372
4.1553793 -4.250412 -0.68503863
4.0795841 -4.2244067 -0.67632639
4.0494771 -4.2450485 -0.67560041
4.0049777 -4.2503052 -0.6723333
3.9855845 -4.2820668 -0.67354333
3.9458017 -4.2918234 -0.67112327
3.9380741 -4.336534 -0.67451137
3.9007893 -4.3487902 -0.67257529
0 -0 -0
0 -0 -0
0 -0 -0
0 -0 -0
3.0804751 -3.6534352 -0.54298097
3.063715 -3.6791346 -0.54406995
3.0650339 -3.7270048 -0.54866809
3.0602498 -3.7680922 -0.55217719
3.0705972 -3.8286235 -0.55871135
3.1043427 -3.9197776 -0.56996465
3.1004055 -3.964561 -0.57395774
3.1002803 -4.0149436 -0.57879788
3.1164987 -4.0875797 -0.58702606
3.3694642 -4.4762659 -0.64341354
3.2857029 -4.421154 -0.63191825
3.3166277 -4.5204792 -0.64389753
3.3388879 -4.6098948 -0.65430385
3.2949564 -4.608489 -0.65103674
3.2837825 -4.6529541 -0.65466684
3.2222736 -4.6257658 -0.64764863
3.2084465 -4.6667213 -0.65079474
3.2115095 -4.7331486 -0.6576919
3.133822 -4.6801691 -0.64704365
3.0968406 -4.6868849 -0.64522862
3.0517662 -4.6808486 -0.64159852
3.0229876 -4.6994858 -0.64159852
2.9898417 -4.7112398 -0.64063048
2.9514 -4.7143497 -0.63845241
2.9625626 -4.7974133 -0.64776969
2.909843 -4.7773457 -0.64232451
2.9070446 -4.8393645 -0.64861667
2.8722389 -4.8485689 -0.64740664
2.802897 -4.7983785 -0.63784742
2.7917247 -4.8473177 -0.64232451
2.7433126 -4.8315496 -0.63772643
2.7029538 -4.8292322 -0.6350643
2.6517034 -4.8066092 -0.62961918
2.6591282 -4.890821 -0.63905746
2.6365659 -4.9210463 -0.64099348
2.5743604 -4.8765526 -0.6326443
2.5526304 -4.9081111 -0.63482231
2.5364909 -4.9510717 -0.63857341
2.4944429 -4.9434977 -0.63542736
2.4384551 -4.907145 -0.62840915
2.4056833 -4.9166641 -0.62768316
2.3625526 -4.9045005 -0.62405306
2.3523934 -4.9610648 -0.62974018
2.2971542 -4.922328 -0.62260103
2.2565572 -4.9137759 -0.61957592
2.2308578 -4.9374809 -0.62090695
2.2113993 -4.9755707 -0.62417406
2.2348695 -5.1127582 -0.64063048
2.1830838 -5.0789471 -0.63433832
2.1283226 -5.0364647 -0.62695712
2.0966182 -5.0475955 -0.62671512
2.0633576 -5.0548501 -0.62598908
2.0238097 -5.0462232 -0.62320602
1.9786277 -5.0225234 -0.61848688
1.9352449 -5.0021639 -0.61425179
1.9024023 -5.0083756 -0.61352575
1.8799529 -5.0422792 -0.61642987
1.8414803 -5.0332088 -0.6137678
1.8035251 -5.0247912 -0.61122674
1.7726597 -5.0357628 -0.61122674
1.7727946 -5.1366329 -0.62284303
1.7282115 -5.1088581 -0.61788189
1.6752983 -5.0543461 -0.60953265
1.6344527 -5.0343156 -0.60566056
1.6128471 -5.0735779 -0.60941166
1.603492 -5.1535234 -0.61836588
1.5542202 -5.1053338 -0.61098468
1.5177708 -5.0976481 -0.60880667
1.4906213 -5.1211629 -0.61062169
1.4361076 -5.0490503 -0.60033643
1.406162 -5.0615931 -0.60082042
1.3857213 -5.1094084 -0.60578156
1.3477483 -5.0928631 -0.6026355
1.3097827 -5.0750837 -0.59936839
1.2909553 -5.1321239 -0.60553956
1.2665207 -5.1688743 -0.60916966
1.2285693 -5.150476 -0.60590255
1.1888741 -5.123105 -0.60154647
1.1589444 -5.1370821 -0.60239351
1.1010814 -5.0238547 -0.58738911
1.0788999 -5.0712972 -0.59247124
1.0447574 -5.0632386 -0.59065616
1.0373845 -5.1883125 -0.60541856
0.98668987 -5.0971193 -0.59331822
0.95594323 -5.1060047 -0.59368128
0.93676889 -5.1791768 -0.60203046
0.89764392 -5.142777 -0.59682733
0.86640036 -5.150146 -0.59706932
0.83399129 -5.1504655 -0.59646434
0.80145848 -5.1496005 -0.59573829
0.77628684 -5.1976204 -0.60106248
0.73722214 -5.1521692 -0.59489131
0.69592404 -5.0857821 -0.58617908
0.67535275 -5.1716557 -0.59622234
0.63456142 -5.1028051 -0.58726811
0.60753846 -5.1430783 -0.5917452
0.57674074 -5.153615 -0.59259224
0.54177701 -5.1254668 -0.58872014
0.50600427 -5.0852313 -0.58339602
0.47773528 -5.1198688 -0.58726811
0.44665498 -5.1266594 -0.5877521
0.41598827 -5.1391978 -0.58896214
0.38754478 -5.1832299 -0.59404427
0.34646121 -5.0498333 -0.57746685
0.3213836 -5.146975 -0.58908314
0.28702006 -5.0992951 -0.58303297
0.25958246 -5.1782908 -0.59247124
0.22659016 -5.1520185 -0.58908314
0.1967255 -5.1999335 -0.59477031
0.16487798 -5.2030272 -0.59501231
0.1330501 -5.2079101 -0.5954963
0.1002181 -5.1629748 -0.58993018
0.068433456 -5.1555519 -0.58896214
0.036811948 -5.1578603 -0.58920413
0.0051764725 -5.1758566 -0.59138221
-0.026491059 -5.1589165 -0.58932513
-0.058213744 -5.1646123 -0.59005117
-0.090515852 -5.198895 -0.59428626
-0.1217761 -5.1714478 -0.59101921
-0.15368348 -5.1765566 -0.5917452
-0.18390392 -5.1328597 -0.58654207
-0.21418037 -5.1028733 -0.58303297
-0.24481536 -5.0875821 -0.58133894
-0.27916273 -5.1434727 -0.58835715
-0.31366387 -5.1902137 -0.59428626
-0.34278974 -5.1475835 -0.58932513
-0.37400684 -5.1404328 -0.58872014
-0.40687305 -5.1548638 -0.59077716
-0.43663752 -5.1305108 -0.5881151
-0.47028154 -5.1514597 -0.59101921
-0.50188142 -5.1484771 -0.59101921
-0.53500181 -5.160111 -0.59283423
-0.56328452 -5.1261435 -0.58908314
-0.59828401 -5.1531568 -0.59283423
-0.62397373 -5.1011105 -0.58690506
-0.66287118 -5.1562567 -0.59416527
-0.69144106 -5.1294665 -0.59138221
-0.72290188 -5.1251278 -0.59138221
-0.74737912 -5.0734587 -0.58557403
-0.77426869 -5.0413065 -0.58218598
-0.79137421 -4.9502063 -0.57153767
-0.80103534 -4.8209009 -0.55617028
-0.82012397 -4.755249 -0.54866809
-0.84036231 -4.700295 -0.54249692
-0.85796672 -4.6345372 -0.53499472
-0.87367451 -4.5628929 -0.52676654
-0.88853592 -4.4912333 -0.5185383
-0.89857316 -4.400115 -0.50789005
-0.90752637 -4.3090458 -0.49724177
-0.91497487 -4.2160959 -0.48635149
-0.92955494 -4.1600304 -0.48005933
-0.94036388 -4.0904036 -0.47207311
-0.95744187 -4.0507479 -0.46783799
-0.97524178 -4.0158606 -0.46420792
-0.99745947 -4.0001702 -0.46299788
-1.0173039 -3.9757047 -0.46069881
-1.0570685 -4.0279512 -0.46808001
-1.1073221 -4.1162801 -0.48005933
-1.1341425 -4.1151495 -0.48078534
-1.1588315 -4.1062026 -0.48054332
-1.1853837 -4.1037827 -0.48114833
-1.2071623 -4.0850096 -0.4796963
-1.2267432 -4.0594735 -0.47739723
-1.2431238 -4.0243683 -0.47388816
-1.2624099 -3.9996271 -0.47171009
-1.2890615 -3.9984186 -0.47255713
-1.3132604 -3.989491 -0.47243613
-1.3139806 -3.9107935 -0.46336088
-1.3205519 -3.8519571 -0.45682672
-1.3339949 -3.8147378 -0.45307562
-1.3540393 -3.797132 -0.45186558
-1.3786705 -3.7924836 -0.4523496
-1.4064019 -3.796052 -0.45392263
-1.425808 -3.7771366 -0.4525916
-1.4371907 -3.7377458 -0.4485985
-1.437639 -3.6715567 -0.44109631
-1.4318115 -3.5916758 -0.43177906
-1.4194555 -3.4982119 -0.42064679
-1.4321721 -3.4683368 -0.4178637
-1.3964741 -3.3240597 -0.39995524
-1.372336 -3.2113864 -0.38616088
-1.36667 -3.1446502 -0.37841669
-1.3754982 -3.1126027 -0.37527061
-1.3872421 -3.0878088 -0.37309253
-1.3974957 -3.0602801 -0.37055147
-1.4070458 -3.0318422 -0.3678894
-1.4124862 -2.9953241 -0.36413831
-1.4188197 -2.9615395 -0.36075023
-1.4317478 -2.9420695 -0.35929817
-1.4572564 -2.948354 -0.36135525
-1.4659611 -2.9207301 -0.35881418
-1.4757353 -2.8957639 -0.35663611
-1.4879975 -2.8760769 -0.35518408
-1.4848313 -2.827354 -0.34973893
-1.5114973 -2.8357058 -0.35215899
-1.5170522 -2.8045554 -0.34913391
-1.5351881 -2.7969341 -0.34937593
-1.5310545 -2.7493119 -0.34405178
-1.5425202 -2.7303612 -0.34272075
-1.5459083 -2.697597 -0.33945367
-1.5749114 -2.7095106 -0.34247875
-1.5693109 -2.6621797 -0.3371546
-1.5937712 -2.6661294 -0.33909065
-1.6075257 -2.6520567 -0.33848566
-1.6149263 -2.6277699 -0.33642858
-1.6404748 -2.6329725 -0.33860666
-1.6592518 -2.6270523 -0.33921167
-1.6662349 -2.6026139 -0.3371546
-1.7038009 -2.6256397 -0.34199473
-1.6920438 -2.5728502 -0.33582357
-1.6587707 -2.4889262 -0.32505429
-1.7296044 -2.5609386 -0.3371546
-1.7649194 -2.5789409 -0.34138972
-1.7625988 -2.5419672 -0.33751762
-1.7872984 -2.5440962 -0.33945367
-1.804027 -2.5346987 -0.33969566
-1.7968906 -2.4921894 -0.33497655
-1.8086337 -2.4763088 -0.33425054
-1.8332456 -2.4779284 -0.33618659
-1.8478198 -2.4658391 -0.33606559
-1.8449008 -2.4307418 -0.33243549
-1.865834 -2.4272432 -0.33364552
-1.8776416 -2.411834 -0.33304051
-1.9010139 -2.4111769 -0.33473456
-1.8928441 -2.3707752 -0.33025742
-1.9029843 -2.3537147 -0.3294104
-1.9331195 -2.3611889 -0.33243549
-1.9456695 -2.3469913 -0.33207247
-1.9517329 -2.3251286 -0.33049944
-1.9723947 -2.3206699 -0.33170947
-1.9814144 -2.3025069 -0.33074144
-2.0020292 -2.2977872 -0.33195147
-2.0121484 -2.2809949 -0.33122545
-2.019491 -2.261205 -0.33001542
-2.0133452 -2.226691 -0.32638532
-2.0390406 -2.2274697 -0.32856339
-2.0384934 -2.1996331 -0.32602233
-2.0519516 -2.187084 -0.32602233
-2.0749078 -2.1845243 -0.32771635
-2.0703759 -2.1531558 -0.32457027
-2.0849338 -2.1418338 -0.32481229
-2.0820041 -2.112746 -0.3220292
-2.1068521 -2.1118724 -0.32408628
-2.1183593 -2.0975091 -0.32384425
-2.1120207 -2.0657399 -0.32057717
-2.1203709 -2.0486054 -0.31985116
-2.1602008 -2.0615869 -0.32444927
-2.1684742 -2.0442097 -0.32372326
-2.1751621 -2.0254567 -0.32275525
-2.1941273 -2.018117 -0.32384425
-2.1719234 -1.973259 -0.31815711
-2.221684 -1.9936903 -0.32432827
-2.2271869 -1.9740978 -0.32323924
-2.2183371 -1.9420961 -0.31985116
-2.2527466 -1.947916 -0.32348126
-0 -0 -0
-0 -0 -0
-0 -0 -0
-0 -0 -0
-0 -0 -0
-0 -0 -0
-0 -0 -0
-0 -0 -0
-0 -0 -0
-2.2376802 -1.7068383 -0.30351573
-2.286979 -1.7223188 -0.3094449
-2.3397377 -1.7396252 -0.31585807
-2.3519688 -1.72641 -0.31610006
-2.3625176 -1.7119461 -0.31610006
-2.3810537 -1.7031893 -0.31731009
-2.3865926 -1.6851143 -0.31658408
-2.4034045 -1.6749762 -0.31755209
-2.4128187 -1.6596354 -0.31743109
-1.7550383 -1.1918353 -0.21905555
-1.7293202 -1.1589602 -0.21421543
-1.7214891 -1.1384809 -0.21203737
-1.7251155 -1.125729 -0.21155335
-1.7370002 -1.1183436 -0.21227936
-0 -0 -0
-0 -0 -0
-0 -0 -0
-0 -0 -0
-0 -0 -0
-0 -0 -0
-0 -0 -0
-0 -0 -0
-0 -0 -0
-0 -0 -0
-0 -0 -0
-0 -0 -0
-0 -0 -0
-0 -0 -0
-0 -0 -0
-1.8700615 -0.95898885 -0.21663548
-1.8085495 -0.91352695 -0.20743924
-1.8061192 -0.89843905 -0.20635022
-1.786629 -0.87513047 -0.20296213
-1.7821265 -0.85941511 -0.2016311
-1.8178654 -0.86291671 -0.20574521
-0 -0 -0
-0 -0 -0
-0 -0 -0
-0 -0 -0
-0 -0 -0
-0 -0 -0
-0 -0 -0
-2.4475253 -1.0173736 -0.28355023
-2.4684277 -1.0083354 -0.28548628
-2.5132675 -1.0086799 -0.29056841
-2.5526609 -1.0063298 -0.29492453
-0 -0 -0
-0 -0 -0
-0 -0 -0
-0 -0 -0
-0 -0 -0
-0 -0 -0
-0 -0 -0
-0 -0 -0
-0 -0 -0
-0 -0 -0
-0 -0 -0
-0 -0 -0
-0 -0 -0
-0 -0 -0
-0 -0 -0
-0 -0 -0
-0 -0 -0
-0 -0 -0
-0 -0 -0
-0 -0 -0
-0 -0 -0
-0 -0 -0
-0 -0 -0
-0 -0 -0
-0 -0 -0
-0 -0 -0
-0 -0 -0
-0 -0 -0
-0 -0 -0
-0 -0 -0
-0 -0 -0
-0 -0 -0
-0 -0 -0
-0 -0 -0
-0 -0 -0
-0 -0 -0
-0 -0 -0
-0 -0 -0
-0 -0 -0
-0 -0 -0
-0 -0 -0
-0 -0 -0
-0 -0 -0
-0 -0 -0
-0 -0 -0
-0.38255048 -0.03693844 -0.0073000574
-0.35606885 -0.032271147 -0.0040329727
-0.35724959 -0.030165574 -0.0041539758
-0 -0 -0
-0.3437281 -0.024831738 -0.0024599319
-0 -0 -0
-0 -0 -0
